# .PCD v0.7 - Point Cloud Data file format
VERSION 0.7
FIELDS x y z normal_x normal_y normal_z curvature
SIZE 4 4 4 4 4 4 4
TYPE F F F F F F F
COUNT 1 1 1 1 1 1 1
WIDTH 52
HEIGHT 1
VIEWPOINT 0 0 0 1 0 0 0
POINTS 52
DATA ascii
-0.11884003 0.40730816 3.7900002 -0.013353355 -0.76052958 0.37980428 0.85019696
-0.093488641 0.40515876 3.7700002 -0.01939898 -0.75954103 0.38659203 0.85248595
-0.085179381 0.40483633 3.7670002 -0.017922141 -0.759422 0.37821913 0.84858274
-0.076250032 0.40118241 3.7330003 -0.012999028 -0.76017696 0.37332511 0.84700036
-0.12712517 0.41560072 3.7900002 -0.00456094 -0.76254183 0.38327596 0.85345846
-0.11836968 0.41395584 3.7750001 -0.0037837178 -0.76279318 0.38523963 0.85456264
-0.11000066 0.41351724 3.7710001 -0.0085866749 -0.76139247 0.37748379 0.84987426
-0.10175704 0.41351724 3.7710001 -0.015542731 -0.76024991 0.38335809 0.85157788
-0.093488641 0.41340759 3.7700002 -0.016240545 -0.76017916 0.38501516 0.85227507
-0.084794976 0.41121444 3.7500002 -0.013493724 -0.76047933 0.37947232 0.85000592
-0.076250032 0.40935028 3.7330003 -0.012026742 -0.76036346 0.37302181 0.84701979
-0.050229095 0.39717832 3.6220002 -0.19194148 0.71976978 -0.62737173 0.97391242
-0.11830697 0.42199194 3.7730002 -0.0020193011 -0.76331145 0.38923836 0.85682839
-0.11002982 0.4218801 3.7720001 -0.0085934177 -0.76139796 0.37759188 0.84992725
-0.10175704 0.42176822 3.7710001 -0.01355236 -0.76049525 0.37995133 0.8502351
-0.093463838 0.42154458 3.7690003 -0.014655255 -0.76048374 0.38410839 0.8521089
-0.084794976 0.4194195 3.7500002 -0.013812631 -0.7603792 0.37896305 0.84969425
-0.076250032 0.41751814 3.7330003 -0.010086909 -0.76090306 0.37482914 0.84827596
-0.068089493 0.41751814 3.7330003 -0.011911072 -0.76064831 0.37675861 0.84892565
-0.011042099 0.4204261 3.7590001 0.023806363 -0.77118254 0.29822186 0.82717925
-0.11002982 0.43013328 3.7720001 -0.0066455528 -0.76195335 0.38016859 0.85155457
-0.10175704 0.43001923 3.7710001 -0.010901943 -0.76108527 0.38034916 0.85090256
-0.093513437 0.43001923 3.7710001 -0.013736583 -0.76064599 0.38337201 0.85190672
-0.085156769 0.42944908 3.7660003 -0.015308216 -0.76034749 0.38424891 0.85206211
-0.076597273 0.42762455 3.7500002 -0.014828704 -0.76045454 0.3842822 0.85216421
-0.068089493 0.425686 3.7330003 -0.011280835 -0.76085836 0.37793621 0.84962845
-0.051199839 0.42101064 3.6920002 -0.0036136806 -0.76528502 0.38231796 0.85547721
-0.011042099 0.42865083 3.7590001 0.02328755 -0.768287 0.30131134 0.82558811
-0.11005899 0.43850273 3.7730002 -0.0051314831 -0.76238108 0.38237879 0.85291547
-0.10178403 0.43838647 3.7720001 -0.0096807405 -0.76139987 0.38137069 0.8516261
-0.093538232 0.43838647 3.7720001 -0.01309973 -0.7607013 0.38183954 0.85125756
-0.085269824 0.43827024 3.7710001 -0.014345028 -0.76052141 0.38352141 0.8518728
-0.076903664 0.43757296 3.7650001 -0.015817665 -0.76001149 0.38016355 0.84993649
-0.068636693 0.43734047 3.7630002 -0.017492659 -0.75942594 0.37677655 0.84793532
-0.035684731 0.43675938 3.7580001 0.0062115714 -0.75762427 0.32274956 0.82352918
-0.011042099 0.43687558 3.7590001 0.021718301 -0.76849896 0.30366218 0.82660335
0.0053926529 0.43687558 3.7590001 0.018966436 -0.80484521 0.28064135 0.85258144
-0.11005899 0.44675809 3.7730002 -0.0025494769 -0.76314855 0.38777021 0.85601866
-0.10178403 0.44663969 3.7720001 -0.0070047155 -0.76192033 0.38085237 0.85183346
-0.093538232 0.44663969 3.7720001 -0.012330204 -0.76089716 0.38239801 0.85167176
-0.085292436 0.44663969 3.7720001 -0.014043644 -0.7606281 0.38432467 0.8523249
-0.077046648 0.44663969 3.7720001 -0.015192635 -0.76005721 0.37863714 0.84928429
-0.068819091 0.44675809 3.7730002 -0.018950954 -0.75902832 0.37577808 0.84716725
-0.0028239714 0.44498193 3.7580001 0.025022745 -0.77670676 0.29681754 0.83186549
-0.11858918 0.45609885 3.7820001 0.0010207891 -0.76408911 0.39527264 0.86027533
-0.11029235 0.45597827 3.7810001 -0.0050999746 -0.76239049 0.38243592 0.85294926
-0.10181101 0.45501348 3.7730002 -0.006824024 -0.76199687 0.3815597 0.8522169
-0.093587831 0.45513406 3.7740002 -0.011359014 -0.76113999 0.38307056 0.85217732
-0.085315049 0.45501348 3.7730002 -0.014266387 -0.7605859 0.38445017 0.85234755
-0.07706707 0.45501348 3.7730002 -0.014984854 -0.76014698 0.37935555 0.84968144
-0.0028239714 0.45320451 3.7580001 0.020482004 -0.77795976 0.2970666 0.83300024
-0.019254351 0.46964964 3.7580001 0.0056416318 -0.76086307 0.32564408 0.8276403
