# .PCD v0.7 - Point Cloud Data file format
VERSION 0.7
FIELDS x y z normal_x normal_y normal_z curvature
SIZE 4 4 4 4 4 4 4
TYPE F F F F F F F
COUNT 1 1 1 1 1 1 1
WIDTH 618
HEIGHT 1
VIEWPOINT 0 0 0 1 0 0 0
POINTS 618
DATA ascii
-1.9019266 0.32340318 3.1370001 0.025567114 -0.38404539 0.29778022 0.48663908
-1.8950689 0.32340318 3.1370001 0.025639027 -0.38383514 0.29782635 0.48650518
-1.8882113 0.32340318 3.1370001 0.025937676 -0.38341084 0.29801735 0.48630336
-1.8873508 0.32443407 3.1470001 0.026561975 -0.38260773 0.29847741 0.48598662
-1.8852516 0.32525882 3.1550002 0.0271056 -0.3815912 0.29880047 0.48541558
-1.8860943 0.32659906 3.1680002 0.026616216 -0.38274249 0.30048561 0.48733133
-1.879169 0.32659906 3.1680002 0.027436465 -0.38171625 0.30099615 0.4868868
-1.8722435 0.32659906 3.1680002 0.029516876 -0.37982559 0.30031222 0.48510426
-1.865907 0.32670218 3.1690001 0.030223906 -0.37958378 0.30075341 0.48523185
-1.8589793 0.32670218 3.1690001 0.031089365 -0.3793489 0.30129182 0.48543683
-1.8532205 0.32690832 3.1710002 0.031460851 -0.37907654 0.30152017 0.48538974
-1.8544401 0.32835165 3.1850002 0.033127904 -0.37903041 0.30317631 0.48649499
-1.8480574 0.32845473 3.1860001 0.033413172 -0.37889728 0.3033514 0.48651996
-1.8410927 0.32845473 3.1860001 0.033456743 -0.3786056 0.30337489 0.48631048
-1.8347036 0.32855782 3.187 0.032405823 -0.37720734 0.30270389 0.48473206
-1.8300306 0.32897019 3.1910002 0.030492336 -0.37643889 0.30149528 0.48325503
-1.8259115 0.32948565 3.1960001 0.028385967 -0.37458131 0.30012843 0.48082635
-1.819494 0.32958877 3.1970003 0.025005162 -0.37267277 0.29791573 0.47776985
-1.8125052 0.32958877 3.1970003 0.021600544 -0.37147096 0.29566091 0.47526059
-1.8060811 0.32969186 3.1980002 0.019154429 -0.37095565 0.29402485 0.47373581
-1.7996526 0.32979494 3.1990001 0.01623717 -0.37076557 0.29205915 0.47225979
-1.7965822 0.33051661 3.2060001 0.014267623 -0.37093565 0.2907244 0.47150558
-1.7901318 0.33061966 3.2070003 0.012212396 -0.37085044 0.28930855 0.4705089
-1.7892373 0.3317537 3.2180002 0.011903405 -0.37180388 0.28912365 0.47113937
-1.7827563 0.33185679 3.2190001 0.012365311 -0.37208253 0.28945112 0.47157213
-1.7773744 0.33216608 3.2220001 0.013217002 -0.37226853 0.29004329 0.47210556
-1.7763749 0.33330014 3.233 0.014484376 -0.37286514 0.29092801 0.47315675
-1.7693075 0.33330014 3.233 0.013752222 -0.37296304 0.29042953 0.47290578
-1.7687809 0.33453724 3.2450001 0.012409747 -0.3740727 0.28953353 0.47319555
-2.0040581 0.32679269 3.1040001 0.0029443651 -0.39819306 0.26082027 0.47601849
-1.9940554 0.32626629 3.0990002 -0.0028786957 -0.39721823 0.25744775 0.47336027
-1.9885634 0.32647687 3.1010001 -0.0062323511 -0.39563832 0.25545618 0.47098449
-1.9843408 0.32689801 3.1050003 -0.0094091594 -0.39498261 0.25353482 0.46944615
-1.9775531 0.32689801 3.1050003 -0.0059190094 -0.38933253 0.24979241 0.46261334
-1.9714 0.32700327 3.1060002 -0.0055952966 -0.38886133 0.24998881 0.46231899
-1.971568 0.32816136 3.1170001 0.017489284 -0.39059252 0.29459149 0.48954317
-1.9647541 0.32816136 3.1170001 0.019683778 -0.38718662 0.2940582 0.48659137
-1.9585682 0.32826662 3.118 0.021320462 -0.38498843 0.29304662 0.48430049
-1.9517521 0.32826662 3.118 0.020484418 -0.38475558 0.29236299 0.48366576
-1.9449359 0.32826662 3.118 0.02162537 -0.38262418 0.29048052 0.48088235
-1.9387413 0.32837191 3.1190002 0.022726715 -0.38264593 0.2926963 0.48229197
-1.931923 0.32837191 3.1190002 0.021670818 -0.38297424 0.29118809 0.48159048
-1.933746 0.32984588 3.1330001 0.024046928 -0.38450396 0.30111179 0.48896816
-1.927512 0.32995114 3.1340001 0.025040269 -0.3825067 0.29947841 0.48644188
-1.920661 0.32995114 3.1340001 0.024450302 -0.38240963 0.29910034 0.48610282
-1.9144205 0.3300564 3.1350002 0.024379045 -0.38181335 0.29904988 0.48559922
-1.9087843 0.33026698 3.1370001 0.023878843 -0.38124004 0.29872349 0.48492256
-1.9019266 0.33026698 3.1370001 0.023838997 -0.3805598 0.2986905 0.48436564
-1.8956729 0.33037224 3.1380002 0.025426716 -0.37863758 0.29765552 0.48229837
-1.8912208 0.33079338 3.1420002 0.026061147 -0.37816715 0.29805604 0.48221052
-1.8909494 0.3319515 3.1530001 0.02504003 -0.37902057 0.29944238 0.48368308
-1.8882394 0.33268845 3.1600001 0.025782138 -0.37806675 0.29989973 0.48325878
-1.8860943 0.33353069 3.1680002 0.02665922 -0.37747258 0.30044565 0.48318097
-1.879169 0.33353069 3.1680002 0.027358919 -0.37692484 0.30087724 0.48306105
-1.8722435 0.33353069 3.1680002 0.028211147 -0.37694609 0.30141428 0.48346126
-1.865907 0.33363599 3.1690001 0.030315459 -0.37478682 0.30073333 0.48148182
-1.859566 0.33374125 3.1700001 0.031022191 -0.3746486 0.30117202 0.48169342
-1.8549738 0.33416238 3.1740003 0.032265007 -0.374479 0.3023465 0.48237842
-1.8550222 0.33542576 3.1860001 0.031535566 -0.37580168 0.30397806 0.48438007
-1.8480574 0.33542576 3.1860001 0.033994526 -0.37429601 0.30363286 0.48316255
-1.8416705 0.33553103 3.187 0.034463644 -0.37395155 0.30391404 0.48310584
-1.8347036 0.33553103 3.187 0.034072012 -0.37348628 0.30366182 0.48255923
-1.8283101 0.33563632 3.1880002 0.03260839 -0.37244219 0.30272934 0.48106292
-1.8259115 0.33647856 3.1960001 0.030559272 -0.37063181 0.30139691 0.4786877
-1.819494 0.33658385 3.1970003 0.027172297 -0.36897287 0.29919529 0.47581208
-1.8125052 0.33658385 3.1970003 0.023969531 -0.36789498 0.29709044 0.47348073
-1.8060811 0.33668911 3.1980002 0.020713717 -0.36676747 0.29491046 0.47108343
-1.7996526 0.33679438 3.1990001 0.017464072 -0.36623535 0.2927202 0.4691678
-1.7965822 0.33753139 3.2060001 0.015594751 -0.3664847 0.29146665 0.46851581
-1.7901318 0.33763665 3.2070003 0.013449907 -0.36586523 0.28997472 0.46703705
-1.7892373 0.33879474 3.2180002 0.012419879 -0.36643058 0.28928927 0.46702665
-1.7822026 0.33879474 3.2180002 0.012397468 -0.36688188 0.28929257 0.46738228
-1.7751678 0.33879474 3.2180002 0.013293386 -0.36750323 0.28993508 0.46829233
-1.7719793 0.33953175 3.2250001 0.014513582 -0.3681995 0.29079828 0.46940935
-1.7698547 0.34047925 3.2340002 0.014884323 -0.36927781 0.29109058 0.47044805
-1.7682358 0.34153205 3.2440002 0.013874352 -0.37058312 0.29044399 0.47104356
-1.9979162 0.33369178 3.1050003 -0.0051085651 -0.39393285 0.25612184 0.46990168
-1.9911286 0.33369178 3.1050003 -0.0076966882 -0.39071602 0.2545397 0.46637827
-1.9849799 0.33379924 3.1060002 -0.011199445 -0.39012131 0.2523962 0.46478373
-1.9781899 0.33379924 3.1060002 -0.012299418 -0.38924873 0.25170392 0.46370327
-1.9714 0.33379924 3.1060002 -0.0070610344 -0.3848165 0.24903865 0.4584254
-1.9646102 0.33379924 3.1060002 -0.007632494 -0.38378328 0.24866624 0.45736501
-1.9647541 0.33498141 3.1170001 0.014268935 -0.38529915 0.29157242 0.48339787
-1.9585682 0.33508888 3.118 0.015456051 -0.38415951 0.29411232 0.48406556
-1.9517521 0.33508888 3.118 0.017521739 -0.38032186 0.28902429 0.47800291
-1.9449359 0.33508888 3.118 0.01612246 -0.38065016 0.28715989 0.47709045
-1.9387413 0.33519632 3.1190002 0.019764692 -0.37880611 0.28924966 0.47702211
-1.931923 0.33519632 3.1190002 0.020232499 -0.37852058 0.28954193 0.47699234
-1.933746 0.33670092 3.1330001 0.023002237 -0.37972268 0.30038768 0.48471761
-1.926897 0.33670092 3.1330001 0.02410686 -0.37847283 0.29883292 0.48282912
-1.920661 0.33680838 3.1340001 0.023936033 -0.37802586 0.29871553 0.48239762
-1.9144205 0.33691582 3.1350002 0.023326695 -0.37785944 0.29832038 0.48199269
-1.9087843 0.33713078 3.1370001 0.023394287 -0.37733671 0.29835418 0.4816072
-1.9025328 0.33723825 3.1380002 0.023619622 -0.3769837 0.29849228 0.48142728
-1.8968812 0.33745319 3.1400001 0.024104476 -0.37615913 0.2987864 0.48098859
-1.8912208 0.33766812 3.1420002 0.02449882 -0.37584245 0.29903224 0.48091376
-1.8909494 0.33885032 3.1530001 0.0254893 -0.37541413 0.29965815 0.48102027
-1.8888371 0.33971006 3.1610003 0.026497215 -0.3746835 0.30028078 0.48089331
-1.885499 0.34035483 3.1670001 0.027124226 -0.37428924 0.30066738 0.4808628
-1.879169 0.34046233 3.1680002 0.027728766 -0.37362984 0.30103084 0.4806118
-1.8722435 0.34046233 3.1680002 0.028301895 -0.37323225 0.30138004 0.48055512
-1.865907 0.34056982 3.1690001 0.029114723 -0.37261564 0.30187118 0.48043346
-1.859566 0.34067726 3.1700001 0.031116277 -0.37101626 0.30113488 0.47885647
-1.8543894 0.34099969 3.1730001 0.031813204 -0.37078834 0.30156171 0.47899428
-1.8550222 0.34239677 3.1860001 0.031746119 -0.37211028 0.30401018 0.48155588
-1.8480574 0.34239677 3.1860001 0.034299403 -0.36995429 0.30370194 0.47987238
-1.8416705 0.34250423 3.187 0.035199016 -0.36967558 0.30424562 0.48006707
-1.8347036 0.34250423 3.187 0.035378814 -0.36928272 0.30434263 0.47983938
-1.8283101 0.3426117 3.1880002 0.034614831 -0.36892813 0.3038615 0.47920555
-1.8259115 0.34347147 3.1960001 0.032948494 -0.36764538 0.3027854 0.4774178
-1.819494 0.34357893 3.1970003 0.029078603 -0.36617926 0.30030116 0.47446141
-1.8130721 0.3436864 3.1980002 0.025773734 -0.36478212 0.29812911 0.47181696
-1.8060811 0.3436864 3.1980002 0.021822006 -0.36357233 0.29549912 0.46902108
-1.7996526 0.34379384 3.1990001 0.018841833 -0.36299372 0.2934944 0.46718135
-1.7960218 0.3444387 3.2050002 0.016550779 -0.36260453 0.29193437 0.46581292
-1.7912483 0.34486857 3.2090001 0.014425278 -0.36232406 0.29047424 0.46460962
-1.7886814 0.34572834 3.2170002 0.013109386 -0.36238337 0.28957427 0.46405473
-1.7822026 0.34583578 3.2180002 0.012754887 -0.36258054 0.28934014 0.46405286
-1.7751678 0.34583578 3.2180002 0.013689011 -0.36314163 0.29001147 0.46493641
-1.7686825 0.34594324 3.2190001 0.014425129 -0.36394727 0.29055536 0.46592715
-1.7687601 0.34734035 3.2320001 0.015153885 -0.36544573 0.29112196 0.46747431
-1.7682358 0.34862998 3.2440002 0.014237553 -0.36714587 0.29056841 0.46843228
-1.9917697 0.34059522 3.1060002 -0.010472864 -0.38837799 0.2528137 0.463532
-1.9849799 0.34059522 3.1060002 -0.012994081 -0.3864592 0.25121799 0.46111825
-1.9781899 0.34059522 3.1060002 -0.012993813 -0.38502926 0.25118273 0.45990121
-1.9714 0.34059522 3.1060002 -0.013176411 -0.38441789 0.25105259 0.45932356
-1.9646102 0.34059522 3.1060002 -0.00930655 -0.37982664 0.24752946 0.45345971
-1.9578203 0.34059522 3.1060002 -0.010105222 -0.38009781 0.24703498 0.45343441
-1.9585682 0.34191111 3.118 0.013174295 -0.38154158 0.29080176 0.4799096
-1.9517521 0.34191111 3.118 0.014360636 -0.37975225 0.28868705 0.4772402
-1.9449359 0.34191111 3.118 0.015400887 -0.37777174 0.28675139 0.47452611
-1.9387413 0.34202075 3.1190002 0.015270948 -0.37803927 0.28656009 0.47461939
-1.931923 0.34202075 3.1190002 0.017091244 -0.37637368 0.28516313 0.47251165
-1.9331287 0.34344631 3.1320002 0.021958798 -0.37731937 0.29966885 0.48234171
-1.926897 0.34355599 3.1330001 0.02201879 -0.37755138 0.29971281 0.48255324
-1.9200481 0.34355599 3.1330001 0.02352649 -0.37593955 0.29840991 0.48055437
-1.9144205 0.34377524 3.1350002 0.023079515 -0.37546054 0.29811057 0.47997206
-1.9081757 0.34388492 3.1360002 0.023280323 -0.37496039 0.29822788 0.47966355
-1.9025328 0.34410423 3.1380002 0.023766249 -0.3742013 0.2985211 0.47927684
-1.8974854 0.34443322 3.141 0.024129987 -0.37361923 0.29873887 0.47897652
-1.8912208 0.34454286 3.1420002 0.025217116 -0.37253258 0.2994028 0.47860053
-1.8855517 0.34476218 3.1440001 0.025858223 -0.3717742 0.29978749 0.47828573
-1.8858492 0.34607807 3.1560001 0.026694 -0.37137121 0.30030769 0.47834492
-1.8849037 0.34717464 3.1660001 0.027522266 -0.37111911 0.30082273 0.47851977
-1.8785757 0.34728429 3.1670001 0.02806142 -0.37040573 0.30113748 0.4781962
-1.8722435 0.34739396 3.1680002 0.028594673 -0.36978945 0.30145004 0.47794771
-1.865907 0.34750363 3.1690001 0.029254556 -0.36939561 0.30184853 0.4779346
-1.859566 0.34761328 3.1700001 0.030085504 -0.36874661 0.30234173 0.47779673
-1.8538049 0.34783259 3.1720002 0.032269597 -0.36728147 0.30172116 0.4764165
-1.8550222 0.3493678 3.1860001 0.032316476 -0.3683891 0.30423141 0.47886494
-1.8486375 0.34947744 3.187 0.033321679 -0.3681134 0.30483937 0.47910839
-1.8416705 0.34947744 3.187 0.035556078 -0.36643678 0.30434492 0.47766721
-1.8352792 0.34958711 3.1880002 0.036285907 -0.36631343 0.30478573 0.47790849
-1.8283101 0.34958711 3.1880002 0.036316723 -0.36603624 0.30479303 0.47770306
-1.8259115 0.35046437 3.1960001 0.03480795 -0.3652131 0.30383447 0.47634819
-1.819494 0.35057405 3.1970003 0.030953676 -0.36396644 0.30138502 0.47356373
-1.8130721 0.35068366 3.1980002 0.02737698 -0.36283287 0.2990655 0.47099614
-1.8066458 0.3507933 3.1990001 0.023521483 -0.36165684 0.29651555 0.46826318
-1.8002152 0.35090297 3.2 0.019971728 -0.36068797 0.29412577 0.4658376
-1.7949009 0.35123193 3.2030001 0.017589748 -0.36012739 0.29250124 0.46428233
-1.7934811 0.35232854 3.2130001 0.015427619 -0.35968602 0.29101253 0.46292585
-1.7881253 0.3526575 3.2160001 0.014024049 -0.35916474 0.29002294 0.46185419
-1.7816489 0.35276717 3.2170002 0.013495624 -0.35923553 0.28966433 0.46166843
-1.7751678 0.35287681 3.2180002 0.013708204 -0.35903141 0.28979817 0.46159989
-1.7686825 0.35298645 3.2190001 0.014256477 -0.35988167 0.29022437 0.46254539
-1.7671185 0.35408306 3.2290001 0.015223861 -0.36132529 0.29096615 0.46416488
-1.7682358 0.35572791 3.2440002 0.014568299 -0.36335942 0.29062456 0.46551579
-1.9985596 0.34739119 3.1060002 -0.0077806413 -0.3861154 0.25440457 0.46245793
-1.9917697 0.34739119 3.1060002 -0.012134671 -0.3847878 0.25170881 0.45996329
-1.9849799 0.34739119 3.1060002 -0.014010787 -0.38309175 0.25049344 0.45793292
-1.9781899 0.34739119 3.1060002 -0.013341606 -0.38171607 0.25086579 0.45696697
-1.9714 0.34739119 3.1060002 -0.014761299 -0.38168764 0.24997768 0.45649993
-1.9633452 0.34716749 3.1040001 -0.01008755 -0.37633044 0.24692665 0.45022121
-1.9546686 0.34683198 3.1010001 -0.010309994 -0.37410635 0.2419365 0.44564012
-1.9485178 0.3469438 3.1020002 -0.011087924 -0.37455297 0.24145994 0.44577545
-1.9429886 0.34716749 3.1040001 -0.0097315609 -0.37514424 0.24421373 0.4477368
-1.9449359 0.34873334 3.118 0.013214111 -0.37472147 0.28358859 0.47012049
-1.9381199 0.34873334 3.118 0.012038261 -0.37482283 0.28186077 0.46912959
-1.931923 0.34884515 3.1190002 0.016850084 -0.3723667 0.28495783 0.46919277
-1.9331287 0.35029915 3.1320002 0.016971856 -0.37730899 0.30097255 0.48294365
-1.926897 0.35041103 3.1330001 0.021078646 -0.37385556 0.29900557 0.47918329
-1.9200481 0.35041103 3.1330001 0.020998299 -0.37445468 0.29897225 0.47962657
-1.9138099 0.35052285 3.1340001 0.022735119 -0.37227333 0.29779983 0.47727251
-1.9075671 0.35063469 3.1350002 0.023302317 -0.37180093 0.29815102 0.47715089
-1.9019266 0.35085842 3.1370001 0.024034649 -0.37076929 0.29858756 0.47665718
-1.8968812 0.35119393 3.1400001 0.024704903 -0.37001491 0.29899037 0.47635764
-1.8912208 0.35141763 3.1420002 0.025717705 -0.36939615 0.29961392 0.4763228
-1.8855517 0.3516413 3.1440001 0.026432186 -0.3688899 0.30004853 0.47624314
-1.8804713 0.35197681 3.1470001 0.027066976 -0.36842251 0.30043206 0.47615877
-1.8843083 0.35399008 3.1650002 0.027633041 -0.3677913 0.30076635 0.4759143
-1.8779826 0.3541019 3.1660001 0.028268367 -0.36734977 0.30114761 0.47585171
-1.8716525 0.35421371 3.1670001 0.028871894 -0.36659846 0.30149344 0.47552738
-1.8653181 0.35432559 3.1680002 0.029732108 -0.3659707 0.30200279 0.47542006
-1.8589793 0.35443744 3.1690001 0.030490994 -0.36566824 0.30246124 0.47552684
-1.8538049 0.35477298 3.1720002 0.031426102 -0.365444 0.30303028 0.47577754
-1.8550222 0.3563388 3.1860001 0.03284359 -0.36545521 0.30442989 0.47677433
-1.8486375 0.35645065 3.187 0.033771694 -0.36520469 0.30498838 0.47700411
-1.8416705 0.35645065 3.187 0.034406066 -0.36511284 0.30537227 0.47722468
-1.8352792 0.3565625 3.1880002 0.036542863 -0.363888 0.30483618 0.47610393
-1.8288836 0.35667434 3.1890001 0.036859751 -0.3640036 0.30503437 0.4763436
-1.8264829 0.35756913 3.1970003 0.036012471 -0.36383563 0.30451027 0.47581485
-1.819494 0.35756913 3.1970003 0.03193897 -0.36222905 0.30191669 0.47263482
-1.8130721 0.35768095 3.1980002 0.029214263 -0.36149094 0.30016556 0.47077441
-1.8072106 0.35790464 3.2 0.025208682 -0.36008328 0.29752535 0.46777856
-1.8007779 0.35801649 3.2010002 0.021823406 -0.35920382 0.29526564 0.46549481
-1.7954614 0.35835201 3.2040002 0.018740952 -0.35815662 0.29315665 0.46321508
-1.7940392 0.35947046 3.2140002 0.016640782 -0.35742414 0.29169768 0.46164539
-1.7881253 0.35969415 3.2160001 0.0150249 -0.35685301 0.29056299 0.46043098
-1.7816489 0.35980603 3.2170002 0.014554203 -0.35660189 0.29022497 0.46000791
-1.7751678 0.35991785 3.2180002 0.014235824 -0.35628247 0.28998578 0.45959941
-1.7714299 0.36058891 3.2240002 0.014754415 -0.35690695 0.29038185 0.46034974
-1.7676656 0.36126 3.2300003 0.015512556 -0.35799649 0.2909683 0.46158931
-1.7682358 0.36282584 3.2440002 0.014708132 -0.35970151 0.29052284 0.46260676
-2.013097 0.35555556 3.118 -0.0044285953 -0.38797325 0.25645253 0.46509221
-1.999203 0.35430118 3.1070001 -0.0079670548 -0.38420865 0.25424233 0.46078077
-1.9924109 0.35430118 3.1070001 -0.01112029 -0.38224721 0.25225839 0.45811668
-1.9856188 0.35430118 3.1070001 -0.013671339 -0.38021374 0.25060612 0.45557964
-1.9781899 0.35418716 3.1060002 -0.014342934 -0.37893349 0.25013605 0.45427343
-1.9714 0.35418716 3.1060002 -0.016001254 -0.3785682 0.2490783 0.45344231
-1.9614476 0.35361701 3.1010001 -0.019119665 -0.37361488 0.23436859 0.44145474
-1.9540383 0.35350296 3.1000001 -0.023234189 -0.37380916 0.22905794 0.43902239
-1.9472616 0.35350296 3.1000001 -0.024861187 -0.37124687 0.22198793 0.43326777
-1.9398587 0.35338891 3.0990002 -0.029067516 -0.37102652 0.21630475 0.43045714
-1.9349556 0.35373104 3.1020002 -0.018323988 -0.37219721 0.23208106 0.43900815
-1.9381199 0.35555556 3.118 0.0043222308 -0.37283799 0.27014637 0.46044099
-1.9313037 0.35555556 3.118 0.0049062073 -0.37267408 0.27051452 0.46053028
-1.933746 0.35726607 3.1330001 0.016335458 -0.37405944 0.30044314 0.4800556
-1.926897 0.35726607 3.1330001 0.015849739 -0.37416422 0.30013159 0.47992608
-1.9200481 0.35726607 3.1330001 0.02040273 -0.37064791 0.29845354 0.47630939
-1.9138099 0.35738009 3.1340001 0.020745844 -0.37066281 0.29867649 0.47647554
-1.9075671 0.35749412 3.1350002 0.023328394 -0.36833736 0.29804069 0.47438896
-1.9013202 0.35760817 3.1360002 0.024156064 -0.36786163 0.29855374 0.47438386
-1.8950689 0.35772222 3.1370001 0.025188148 -0.3672668 0.29918948 0.47437719
-1.8912208 0.35829237 3.1420002 0.026053488 -0.3667815 0.29971978 0.47438318
-1.8855517 0.35852042 3.1440001 0.026882708 -0.36629519 0.3002241 0.4743726
-1.8804713 0.35886252 3.1470001 0.027449489 -0.36544272 0.30054295 0.47394928
-1.8843083 0.36091515 3.1650002 0.026232988 -0.36721563 0.30193207 0.47612861
-1.8779826 0.36102915 3.1660001 0.028699398 -0.36520597 0.30132091 0.47433466
-1.8710616 0.36102915 3.1660001 0.029620349 -0.36436135 0.30185583 0.47408172
-1.8647293 0.36114317 3.1670001 0.030276895 -0.36372352 0.30223277 0.47387356
-1.8583927 0.36125723 3.1680002 0.03115344 -0.363094 0.30274415 0.47377402
-1.8538049 0.36171335 3.1720002 0.03186512 -0.36295757 0.30317691 0.47399348
-1.8556044 0.36342382 3.187 0.033333719 -0.36291921 0.30460578 0.47498018
-1.8486375 0.36342382 3.187 0.033977628 -0.36290097 0.3049998 0.47526464
-1.8422484 0.36353788 3.1880002 0.034508079 -0.36318725 0.30533913 0.47573918
-1.8352792 0.36353788 3.1880002 0.036720127 -0.36192998 0.30484837 0.47463059
-1.8311777 0.36410809 3.1930001 0.03705442 -0.36245272 0.30507806 0.47520271
-1.8264829 0.36456421 3.1970003 0.036680579 -0.36270174 0.3048631 0.47522578
-1.8200631 0.36467823 3.1980002 0.034272701 -0.36206257 0.30335587 0.47359127
-1.813639 0.36479223 3.1990001 0.030506045 -0.36050951 0.30092791 0.47059041
-1.8077755 0.36502033 3.2010002 0.026845902 -0.35933644 0.29853696 0.46793985
-1.8019029 0.36524838 3.2030001 0.023246557 -0.35784838 0.29611728 0.46506053
-1.8005049 0.36638874 3.2130001 0.020580292 -0.35722134 0.29432291 0.46331048
-1.7945974 0.36661676 3.2150002 0.017935485 -0.35626751 0.29249555 0.46130455
-1.7881253 0.36673081 3.2160001 0.01613006 -0.35562491 0.29123306 0.45994124
-1.7822026 0.36695889 3.2180002 0.015407681 -0.35505593 0.2907027 0.45914069
-1.7790294 0.36775714 3.2250001 0.01571101 -0.35497749 0.29090372 0.45921764
-1.7736276 0.36809921 3.2280002 0.015721112 -0.35504842 0.29091552 0.45928028
-1.7747799 0.36980969 3.2430003 0.017511934 -0.35599348 0.29219228 0.4608843
-2.0062809 0.36237779 3.118 -0.0092126429 -0.38305235 0.25345197 0.45940384
-1.9994649 0.36237779 3.118 -0.012391657 -0.38074017 0.25142118 0.45643097
-1.9926487 0.36237779 3.118 -0.0139063 -0.37867594 0.25039846 0.45418966
-1.9781899 0.36098313 3.1060002 -0.018262193 -0.3774448 0.24554397 0.45065498
-1.9714 0.36098313 3.1060002 -0.01909031 -0.37708127 0.24500467 0.45009112
-1.9608151 0.36028582 3.1000001 -0.036751732 -0.37340599 0.2160293 0.43295658
-1.9540383 0.36028582 3.1000001 -0.032894224 -0.37095425 0.21625704 0.43064624
-1.9472616 0.36028582 3.1000001 -0.029400617 -0.36863676 0.21598899 0.42826244
-1.9404848 0.36028582 3.1000001 -0.029853493 -0.36889783 0.21571147 0.42837867
-1.9343318 0.36040205 3.1010001 -0.030227333 -0.36899799 0.21547651 0.42837289
-1.9287959 0.36063445 3.1030002 -0.018811166 -0.3702713 0.23168752 0.43718851
-1.9313037 0.36237779 3.118 0.0008482635 -0.37176648 0.26556769 0.45687768
-1.933746 0.36412114 3.1330001 0.015679479 -0.37244642 0.29994902 0.47846797
-1.926897 0.36412114 3.1330001 0.01550281 -0.37217194 0.29982173 0.47816876
-1.920661 0.36423734 3.1340001 0.018199027 -0.37047172 0.29923052 0.47657046
-1.9144205 0.36435354 3.1350002 0.021198422 -0.36841431 0.29887447 0.47487307
-1.9075671 0.36435354 3.1350002 0.021906614 -0.36790559 0.29930812 0.47478393
-1.9013202 0.36446977 3.1360002 0.024390042 -0.36513555 0.2985808 0.47230217
-1.8944647 0.36446977 3.1360002 0.025027633 -0.36446995 0.29846114 0.47174546
-1.8906189 0.36505091 3.141 0.026103467 -0.36407807 0.29962289 0.47223735
-1.8861514 0.3655158 3.1450002 0.027054787 -0.36354443 0.30019903 0.47224566
-1.882264 0.36609688 3.1500001 0.027908832 -0.36322892 0.30072185 0.4723852
-1.8843083 0.3678402 3.1650002 0.026756704 -0.36468956 0.30213383 0.47434089
-1.8773896 0.3678402 3.1650002 0.029544055 -0.36221042 0.30169544 0.47232339
-1.8710616 0.36795643 3.1660001 0.030099988 -0.36174667 0.3020165 0.47220826
-1.8647293 0.36807263 3.1670001 0.03114602 -0.3614862 0.30265164 0.47248319
-1.857806 0.36807263 3.1670001 0.031792581 -0.36118743 0.30303457 0.47254321
-1.8608181 0.3700484 3.1840003 0.033003002 -0.3612487 0.30425733 0.47345787
-1.8556044 0.37039703 3.187 0.033397287 -0.36097375 0.30453819 0.47345638
-1.8486375 0.37039703 3.187 0.03408131 -0.36122063 0.30497175 0.4739722
-1.8422484 0.37051329 3.1880002 0.034467161 -0.36137581 0.30521652 0.47427586
-1.8364307 0.37074572 3.1900001 0.035142094 -0.36168528 0.30564535 0.47483709
-1.8334717 0.37155929 3.1970003 0.035389632 -0.36208281 0.30581775 0.47526929
-1.8276254 0.37179169 3.1990001 0.035623252 -0.36305013 0.30601108 0.47614831
-1.8223397 0.37214038 3.2020001 0.034049779 -0.3629854 0.3050485 0.47536552
-1.8181745 0.37272146 3.2070003 0.032653779 -0.36070833 0.30228207 0.47175336
-1.8128581 0.37307015 3.21 0.029200435 -0.35948667 0.30004621 0.46915996
-1.8069661 0.37330258 3.2120001 0.025909483 -0.35847867 0.29788414 0.46681175
-1.8010652 0.37353504 3.2140002 0.021935433 -0.35698241 0.29520264 0.46374798
-1.7945974 0.37365124 3.2150002 0.018986166 -0.35552913 0.29315022 0.46119246
-1.7903494 0.37423235 3.2200003 0.017676711 -0.35490006 0.29222837 0.46006948
-1.7866331 0.3749297 3.2260001 0.016798705 -0.35454819 0.29161128 0.45937324
-1.7806842 0.37516212 3.2280002 0.016644925 -0.35446557 0.29150137 0.45923409
-1.7774737 0.37597567 3.2350001 0.017282933 -0.35416555 0.29191115 0.45928645
-1.7764218 0.37725413 3.2460001 0.017977208 -0.35439116 0.29239476 0.45979449
-1.7796825 0.37946233 3.2650001 0.015529215 -0.35671008 0.29089734 0.46054804
-2.0062809 0.36920002 3.118 -0.008256346 -0.38107368 0.25396723 0.45802256
-1.9994649 0.36920002 3.118 -0.011369705 -0.37918946 0.25199315 0.45542777
-1.9926487 0.36920002 3.118 -0.014666468 -0.37764379 0.24987859 0.4530665
-1.9858327 0.36920002 3.118 -0.016699314 -0.3765246 0.24854603 0.45146954
-1.9790165 0.36920002 3.118 -0.018877715 -0.37592953 0.24712884 0.45027995
-1.9652426 0.36789751 3.1070001 -0.020707205 -0.37541777 0.24389793 0.44816679
-1.9534079 0.36695024 3.0990002 -0.03304866 -0.36955824 0.21609163 0.42937291
-1.9472616 0.36706865 3.1000001 -0.034265369 -0.36978626 0.21532515 0.42927954
-1.9404848 0.36706865 3.1000001 -0.030746549 -0.36774182 0.21508431 0.42713073
-1.9343318 0.36718708 3.1010001 -0.030375689 -0.36787015 0.21532875 0.4273378
-1.9287959 0.36742386 3.1030002 -0.030715495 -0.36770341 0.21510246 0.42710456
-1.9306844 0.36908165 3.1170001 -0.014590621 -0.37127316 0.2438419 0.44442719
-1.933746 0.37097618 3.1330001 0.015105546 -0.37051746 0.29905361 0.47638685
-1.927512 0.37109458 3.1340001 0.014725238 -0.37034667 0.29879695 0.47608098
-1.9212737 0.37121296 3.1350002 0.016258836 -0.37004444 0.30021387 0.47678676
-1.9144205 0.37121296 3.1350002 0.019055843 -0.36823002 0.29922748 0.47486162
-1.9081757 0.37133139 3.1360002 0.022130489 -0.3659935 0.29887447 0.4730401
-1.9013202 0.37133139 3.1360002 0.024749279 -0.36352202 0.29823482 0.47085541
-1.8944647 0.37133139 3.1360002 0.025547236 -0.36277625 0.29870427 0.47062036
-1.889415 0.37168661 3.1390002 0.026639223 -0.36182955 0.29984304 0.47067624
-1.88915 0.37298912 3.1500001 0.025705099 -0.36318475 0.30148718 0.47271389
-1.8906296 0.37464684 3.164 0.022029847 -0.36677185 0.30353501 0.47659251
-1.8843083 0.37476528 3.1650002 0.025478005 -0.36437163 0.30342856 0.47485229
-1.8773896 0.37476528 3.1650002 0.02816543 -0.36222968 0.30287626 0.47300917
-1.8710616 0.37488368 3.1660001 0.030956656 -0.36050764 0.30247778 0.47161093
-1.8641405 0.37488368 3.1660001 0.031729639 -0.3601611 0.30293578 0.47169149
-1.857806 0.37500206 3.1670001 0.032170743 -0.36011672 0.30320522 0.47186059
-1.861987 0.37725186 3.1860001 0.031363636 -0.36166072 0.30526331 0.47430772
-1.8556044 0.37737024 3.187 0.031707704 -0.36156905 0.30550921 0.47441903
-1.8492175 0.37748867 3.1880002 0.034034312 -0.35968676 0.30485362 0.47272468
-1.8434042 0.37772548 3.1900001 0.034555495 -0.36008355 0.30519608 0.47328523
-1.839309 0.37831753 3.1950002 0.034875214 -0.36061788 0.30542237 0.4738611
-1.8357657 0.37902802 3.2010002 0.035199434 -0.3614186 0.30566543 0.47465122
-1.8327672 0.37985685 3.2080002 0.035180807 -0.361837 0.30567729 0.47497612
-1.8268926 0.38009369 3.21 0.034433186 -0.36190051 0.30522481 0.47467864
-1.8204422 0.38021207 3.2110002 0.032170027 -0.36191487 0.30383441 0.47363767
-1.8145524 0.38044894 3.2130001 0.028978705 -0.36063135 0.30177155 0.47112718
-1.8137169 0.38175142 3.2240002 0.025672406 -0.35967359 0.29961681 0.46882236
-1.806669 0.38175142 3.2240002 0.022502214 -0.35841849 0.29749227 0.46633875
-1.7996212 0.38175142 3.2240002 0.020758569 -0.35539716 0.29432064 0.46191201
-1.7942413 0.38210663 3.2270002 0.018595666 -0.35475722 0.29283556 0.46038154
-1.7882947 0.38234347 3.2290001 0.017695397 -0.35447714 0.29221123 0.45973316
-1.7850974 0.38317233 3.2360001 0.018305719 -0.35425788 0.29260585 0.45983902
-1.7835177 0.38435641 3.2460001 0.018986672 -0.35388151 0.29303509 0.45985016
-1.7775164 0.38459322 3.2480001 0.018503278 -0.35368913 0.29269752 0.45946729
-1.7791374 0.38648778 3.2640002 0.016763777 -0.35371962 0.29152828 0.45868
-2.0062809 0.37602225 3.118 -0.0068089068 -0.38016224 0.25480792 0.45770815
-1.9994649 0.37602225 3.118 -0.011289448 -0.37821996 0.2520026 0.45462412
-1.9926487 0.37602225 3.118 -0.014025956 -0.37726516 0.25026277 0.45294279
-1.9864695 0.37614283 3.1190002 -0.016139627 -0.37582177 0.24886686 0.45104012
-1.9796512 0.37614283 3.1190002 -0.019005805 -0.37524557 0.24701306 0.44965088
-1.9728329 0.37614283 3.1190002 -0.019388407 -0.37446553 0.2467275 0.44885945
-1.9622327 0.37541929 3.1130002 -0.019745857 -0.37461853 0.24650535 0.44888064
-1.9472616 0.37385151 3.1000001 -0.034645915 -0.36863166 0.21502241 0.42816386
-1.9411107 0.37397212 3.1010001 -0.034976661 -0.36889008 0.21482298 0.42831317
-1.9343318 0.37397212 3.1010001 -0.03056401 -0.36633679 0.21513137 0.42593226
-1.9331471 0.37505749 3.1100001 -0.016221046 -0.36965817 0.24079907 0.44146854
-1.9294455 0.37566045 3.1150002 -0.014835894 -0.36986586 0.24361296 0.44313443
-1.9349803 0.37807241 3.1350002 0.014996111 -0.36937693 0.29892516 0.47541609
-1.9281271 0.37807241 3.1350002 0.014774114 -0.36924097 0.29877311 0.4752079
-1.9218867 0.37819302 3.1360002 0.015848219 -0.36893943 0.29945749 0.47543901
-1.9150312 0.37819302 3.1360002 0.01710844 -0.3685551 0.30025351 0.47568661
-1.9081757 0.37819302 3.1360002 0.020516545 -0.36612669 0.29971677 0.47360301
-1.9013202 0.37819302 3.1360002 0.023192286 -0.36383504 0.29907167 0.47154817
-1.8950689 0.37831363 3.1370001 0.025939405 -0.36129862 0.2984792 0.46936059
-1.8882113 0.37831363 3.1370001 0.026208133 -0.36090928 0.29808199 0.46882325
-1.8897498 0.38000196 3.1510003 0.026438922 -0.36191943 0.30187583 0.47203147
-1.8906296 0.38156974 3.164 0.022805154 -0.36503503 0.30391967 0.47553951
-1.8843083 0.38169035 3.1650002 0.023768514 -0.36461794 0.30449682 0.47563589
-1.8773896 0.38169035 3.1650002 0.028681278 -0.36072323 0.30310562 0.47203484
-1.8710616 0.38181093 3.1660001 0.029332727 -0.36063501 0.30350423 0.47226354
-1.8641405 0.38181093 3.1660001 0.031905621 -0.3590256 0.30297521 0.47086233
-1.857806 0.38193151 3.1670001 0.032548815 -0.35937634 0.30339316 0.47144267
-1.8614026 0.38410228 3.1850002 0.029532939 -0.36262894 0.30612913 0.47548607
-1.856769 0.3845847 3.1890001 0.031804234 -0.36065313 0.30551264 0.47373006
-1.8503777 0.38470528 3.1900001 0.032069325 -0.36072865 0.3056798 0.47391325
-1.8445599 0.38494647 3.1920002 0.034129858 -0.35913277 0.30487853 0.47232628
-1.8444902 0.38639364 3.2040002 0.032587677 -0.36135694 0.30603516 0.47465602
-1.8403536 0.38699663 3.2090001 0.033399075 -0.36224985 0.30658257 0.47574502
-1.8344811 0.38723779 3.2110002 0.032897204 -0.36204293 0.30626485 0.47534773
-1.8308766 0.38796142 3.2170002 0.032158852 -0.3625752 0.30584469 0.47543237
-1.8278126 0.38880557 3.2240002 0.031082332 -0.36256471 0.30518329 0.47492748
-1.8230237 0.38928795 3.2280002 0.028396457 -0.36226222 0.30350065 0.47344792
-1.8182174 0.38977036 3.2320001 0.026989281 -0.35931084 0.30043453 0.46914136
-1.8105916 0.38964975 3.2310002 0.023496836 -0.35833347 0.29813251 0.46673116
-1.8040868 0.38977036 3.2320001 0.02104491 -0.35763112 0.29648879 0.46502528
-1.7970214 0.38977036 3.2320001 0.017687291 -0.35674688 0.29420733 0.46275169
-1.7916175 0.39013213 3.2350001 0.018585414 -0.35470396 0.29282498 0.46033338
-1.7900621 0.39133814 3.2450001 0.016918927 -0.35584167 0.29363012 0.46165809
-1.7851661 0.39182052 3.2490001 0.017790228 -0.35595185 0.29422069 0.46215153
-1.782989 0.39290589 3.2580001 0.018108755 -0.35507298 0.29437011 0.46158263
-2.0024202 0.38210779 3.1120002 -0.0067286342 -0.37952086 0.25268048 0.45599207
-1.9968998 0.38235337 3.1140001 -0.0088196099 -0.3775939 0.25348732 0.45487446
-1.9926487 0.38284451 3.118 -0.014718711 -0.37656245 0.24979687 0.45212209
-1.9864695 0.38296726 3.1190002 -0.016622841 -0.37533855 0.24853736 0.45047328
-1.980286 0.38309005 3.1200001 -0.019243777 -0.37463593 0.24682933 0.44905138
-1.9734654 0.38309005 3.1200001 -0.019600242 -0.37405926 0.24656996 0.44844311
-1.9672754 0.38321286 3.1210001 -0.019985497 -0.37340805 0.24628669 0.44776124
-1.9554275 0.38223058 3.1130002 -0.020116389 -0.37368324 0.2462171 0.44795835
-1.9479963 0.38210779 3.1120002 -0.023083583 -0.37339494 0.24226592 0.44570103
-1.9411933 0.38210779 3.1120002 -0.023044065 -0.37362736 0.24230416 0.44591451
-1.9343903 0.38210779 3.1120002 -0.022802904 -0.37385452 0.24247213 0.44618371
-1.9288261 0.38235337 3.1140001 -0.019943357 -0.37131709 0.24139769 0.44333619
-1.9355975 0.38505462 3.1360002 0.014469028 -0.3685627 0.29853797 0.47452369
-1.9287421 0.38505462 3.1360002 0.014721513 -0.36811766 0.29835725 0.47407213
-1.9218867 0.38505462 3.1360002 0.015862107 -0.36773825 0.29907885 0.47426912
-1.9150312 0.38505462 3.1360002 0.017420799 -0.36713648 0.3000527 0.47447264
-1.9081757 0.38505462 3.1360002 0.018427163 -0.36681572 0.3001512 0.47432488
-1.9019266 0.38517743 3.1370001 0.023414075 -0.36269704 0.29858789 0.47037441
-1.8950689 0.38517743 3.1370001 0.023840398 -0.36237875 0.29835826 0.47000465
-1.8882113 0.38517743 3.1370001 0.025751054 -0.36011833 0.29610789 0.46693489
-1.8897498 0.3868964 3.1510003 0.025289267 -0.3625055 0.30333403 0.47335115
-1.8906296 0.38849261 3.164 0.02371037 -0.36399341 0.30442131 0.475106
-1.8843083 0.38861543 3.1650002 0.024547607 -0.3635484 0.3049145 0.47512409
-1.8773896 0.38861543 3.1650002 0.026998729 -0.36137342 0.30419174 0.47313032
-1.8710616 0.38873819 3.1660001 0.029390603 -0.35957891 0.30347252 0.47144073
-1.8647293 0.38886094 3.1670001 0.031826526 -0.35793158 0.30285674 0.46994695
-1.8583927 0.38898376 3.1680002 0.032339126 -0.35814223 0.30318651 0.47035491
-1.8614026 0.39107111 3.1850002 0.02720052 -0.36395597 0.30672914 0.47674581
-1.8579334 0.39180779 3.1910002 0.027655363 -0.36367348 0.30717912 0.47684613
-1.8509576 0.39180779 3.1910002 0.031852335 -0.36010689 0.30546772 0.47328857
-1.8514943 0.39340404 3.2040002 0.027726978 -0.36398149 0.30724245 0.47712603
-1.8490957 0.39438632 3.2120001 0.028089613 -0.36432841 0.30748615 0.47756881
-1.846662 0.39536861 3.2200003 0.029167026 -0.36476398 0.30817005 0.47840595
-1.8401943 0.39549139 3.2210002 0.029071629 -0.3650592 0.30812988 0.47859943
-1.8371369 0.39635086 3.2280002 0.02826345 -0.36536106 0.3076551 0.47847593
-1.8368835 0.39782429 3.2400002 0.027802974 -0.36585733 0.30740267 0.47866586
-1.8303655 0.3979471 3.2410002 0.024982691 -0.36511707 0.30561832 0.47679886
-1.8238431 0.39806986 3.2420001 0.022113651 -0.36483711 0.30380395 0.47528094
-1.8173162 0.39819264 3.2430003 0.021392941 -0.36200333 0.30109155 0.47133875
-1.8107851 0.39831543 3.2440002 0.019846946 -0.35960189 0.29787508 0.46737242
-1.8036935 0.39831543 3.2440002 0.018537462 -0.35683668 0.29477981 0.4632183
-1.7971559 0.39843825 3.2450001 0.017768174 -0.35645774 0.29424134 0.46255356
-1.7906137 0.398561 3.2460001 0.017808199 -0.35605621 0.29424003 0.4622449
-1.7906605 0.40015721 3.2590001 0.019508034 -0.35620189 0.29537937 0.46315151
-1.7835362 0.40015721 3.2590001 0.019403517 -0.35495999 0.29522169 0.46209189
-2.0079319 0.38866693 3.1100001 -0.01114884 -0.38060516 0.24454381 0.45253313
-2.0011334 0.38866693 3.1100001 -0.013148665 -0.37918615 0.24331658 0.4507305
-1.9943348 0.38866693 3.1100001 -0.017112046 -0.37790516 0.24090119 0.44848469
-1.9881752 0.38879189 3.1110001 -0.014952853 -0.37642831 0.24756457 0.45078829
-1.9871064 0.38991666 3.1200001 -0.016610831 -0.37556472 0.24855614 0.45067164
-1.9809208 0.39004165 3.1210001 -0.01910159 -0.3746956 0.24692369 0.44914693
-1.9747305 0.39016661 3.1220002 -0.02006048 -0.37319717 0.24622679 0.44755578
-1.9685359 0.39029157 3.1230001 -0.0199835 -0.37242645 0.24623334 0.44691348
-1.9554275 0.38904187 3.1130002 -0.023014143 -0.37299275 0.24228869 0.44537294
-1.9479963 0.38891688 3.1120002 -0.023160741 -0.3730762 0.24219854 0.4454014
-1.9418172 0.38904187 3.1130002 -0.022856519 -0.37274075 0.24237643 0.44520155
-1.935012 0.38904187 3.1130002 -0.022955343 -0.37298691 0.24232633 0.44538549
-1.9294455 0.38929179 3.1150002 -0.023649231 -0.37289396 0.24187212 0.44509697
-1.9362148 0.39204124 3.1370001 0.014144152 -0.36751187 0.29794624 0.47332546
-1.9293572 0.39204124 3.1370001 0.014929324 -0.36693832 0.2984269 0.47320738
-1.9224995 0.39204124 3.1370001 0.015871435 -0.36646295 0.2984868 0.47290736
-1.9156419 0.39204124 3.1370001 0.01685679 -0.36610496 0.29865396 0.47276968
-1.9087843 0.39204124 3.1370001 0.018187135 -0.36568245 0.2994805 0.4730148
-1.9019266 0.39204124 3.1370001 0.020736873 -0.36370459 0.29768428 0.47045401
-1.8950689 0.39204124 3.1370001 0.023471594 -0.36151344 0.29670995 0.46827307
-1.8882113 0.39204124 3.1370001 0.025434822 -0.35947338 0.2944926 0.46539652
-1.8897498 0.39379084 3.1510003 0.024069488 -0.36358285 0.30482045 0.47506562
-1.8906296 0.39541548 3.164 0.024630725 -0.36299533 0.30502492 0.47477624
-1.8843083 0.39554048 3.1650002 0.024666727 -0.36283514 0.30494192 0.47460231
-1.8779826 0.39566544 3.1660001 0.025035501 -0.36263803 0.30515778 0.47460973
-1.8716525 0.3957904 3.1670001 0.027671516 -0.36055449 0.30455473 0.47277775
-1.8653181 0.39591539 3.1680002 0.02968511 -0.35877663 0.30360168 0.47093084
-1.8583927 0.39591539 3.1680002 0.032064825 -0.35714737 0.30295226 0.46942779
-1.8520517 0.39604038 3.1690001 0.03243345 -0.3573657 0.30319393 0.4697752
-1.8579334 0.39878976 3.1910002 0.027444124 -0.36318651 0.30698761 0.47633919
-1.8566952 0.40153921 3.2130001 0.028209955 -0.36378706 0.30752584 0.47718862
-1.8542769 0.40253899 3.2210002 0.02855733 -0.36381608 0.30773985 0.47736934
-1.8575585 0.40478846 3.2390001 0.029438645 -0.36478025 0.30833614 0.47854197
-1.8504778 0.40478846 3.2390001 0.028719783 -0.36458388 0.30788675 0.47805908
-1.8439664 0.40491346 3.2400002 0.02850163 -0.36492255 0.30777431 0.478232
-1.8368835 0.40491346 3.2400002 0.027581692 -0.36494556 0.30721289 0.47783446
-1.8303655 0.40503845 3.2410002 0.025567383 -0.36507475 0.30597869 0.47702852
-1.8238431 0.40516341 3.2420001 0.022819847 -0.36477032 0.30424479 0.47554496
-1.8173162 0.40528837 3.2430003 0.019625515 -0.36412022 0.30217844 0.47358263
-1.8107851 0.40541336 3.2440002 0.020974874 -0.35961255 0.29861042 0.46789885
-1.8042496 0.40553835 3.2450001 0.019666344 -0.35726002 0.29555658 0.46408531
-1.7971559 0.40553835 3.2450001 0.01827246 -0.35685417 0.29460475 0.46310985
-1.7977849 0.40728796 3.2590001 0.017352641 -0.35792834 0.29612142 0.46486738
-1.7906605 0.40728796 3.2590001 0.020839393 -0.35535714 0.29619715 0.46308285
-2.0040581 0.39470869 3.1040001 -0.026423007 -0.37843254 0.22429751 0.44070256
-1.9936936 0.39534453 3.1090002 -0.026711091 -0.37755352 0.22813165 0.44193235
-1.9881752 0.3955988 3.1110001 -0.021458417 -0.37709567 0.23821698 0.44655228
-1.9864695 0.3966161 3.1190002 -0.015466988 -0.37531546 0.24926654 0.45081562
-1.98219 0.39712474 3.1230001 -0.01832664 -0.3740716 0.24738783 0.44884983
-1.975363 0.39712474 3.1230001 -0.019681871 -0.37327862 0.2464754 0.44774371
-1.9691663 0.39725193 3.1240001 -0.020673752 -0.37274233 0.24580503 0.44697246
-1.9554275 0.39585316 3.1130002 -0.022697672 -0.37283301 0.24248417 0.44532931
-1.9486223 0.39585316 3.1130002 -0.026436791 -0.37261888 0.2377242 0.4427827
-1.9418172 0.39585316 3.1130002 -0.026151195 -0.37230352 0.23789091 0.44258997
-1.935012 0.39585316 3.1130002 -0.030332476 -0.37190855 0.23234816 0.43956989
-1.9300649 0.39623463 3.1160002 -0.023802057 -0.3717463 0.24170722 0.44405431
-1.9362148 0.39890504 3.1370001 0.012613386 -0.36651018 0.29531556 0.47085041
-1.9293572 0.39890504 3.1370001 0.013772964 -0.36609721 0.29604831 0.47102171
-1.9224995 0.39890504 3.1370001 0.015461117 -0.36537045 0.29709858 0.47117108
-1.9156419 0.39890504 3.1370001 0.016294718 -0.36492187 0.29700696 0.4707936
-1.9087843 0.39890504 3.1370001 0.016676277 -0.36484876 0.29629067 0.47029871
-1.9019266 0.39890504 3.1370001 0.018039346 -0.36460701 0.29714012 0.47069725
-1.8950689 0.39890504 3.1370001 0.020695299 -0.3626039 0.29553309 0.46824107
-1.8882113 0.39890504 3.1370001 0.023135811 -0.36063051 0.29394731 0.46582687
-1.88915 0.40055811 3.1500001 0.024765462 -0.36271581 0.30519757 0.47468057
-1.8870443 0.40157542 3.1580002 0.025124788 -0.36246946 0.30540451 0.47464439
-1.8843083 0.40246555 3.1650002 0.025170684 -0.3623223 0.30531561 0.47447723
-1.8779826 0.40259269 3.1660001 0.02547735 -0.36195204 0.3054806 0.47431716
-1.8716525 0.40271986 3.1670001 0.02556619 -0.36169308 0.30551797 0.47414842
-1.8653181 0.40284702 3.1680002 0.027772427 -0.35978541 0.30456498 0.47220406
-1.8589793 0.40297419 3.1690001 0.030080616 -0.35804608 0.30379635 0.47052529
-1.8526361 0.40310135 3.1700001 0.032148063 -0.35677135 0.30297831 0.46916431
-1.8642991 0.40869644 3.2140002 0.028007984 -0.36339584 0.3073774 0.4767828
-1.8613182 0.40958658 3.2210002 0.028093398 -0.36320493 0.30741739 0.47666812
-1.864639 0.41187546 3.2390001 0.029394358 -0.36379495 0.30824822 0.47773188
-1.8575585 0.41187546 3.2390001 0.029284537 -0.36369336 0.30817506 0.47760057
-1.8504778 0.41187546 3.2390001 0.028793991 -0.36402941 0.30789763 0.47764784
-1.8439664 0.41200262 3.2400002 0.027967155 -0.36415714 0.30740058 0.47737586
-1.8368835 0.41200262 3.2400002 0.026957721 -0.36439183 0.30679563 0.47710761
-1.8303655 0.41212982 3.2410002 0.025611848 -0.36469981 0.30598345 0.4767471
-1.8238431 0.41225696 3.2420001 0.023083031 -0.36457467 0.30439815 0.47550577
-1.8173162 0.41238409 3.2430003 0.020448118 -0.36377385 0.30268136 0.47367242
-1.8107851 0.41251129 3.2440002 0.019241035 -0.36135158 0.29966128 0.46983194
-1.8042496 0.41263846 3.2450001 0.018487632 -0.35925126 0.2969608 0.46646434
-1.7977096 0.41276559 3.2460001 0.019065619 -0.35641745 0.29510146 0.46312177
-1.7983366 0.41454586 3.2600002 0.018936962 -0.35685539 0.29708964 0.46472213
-1.7840835 0.41454586 3.2600002 0.022224158 -0.35352248 0.29696807 0.46223596
-1.9959857 0.4012416 3.1020002 -0.027209789 -0.3769657 0.22377913 0.43922728
-1.9936936 0.40214705 3.1090002 -0.032873273 -0.37641656 0.22039993 0.4374314
-1.9875362 0.4022764 3.1100001 -0.036528647 -0.37559578 0.21814282 0.43588164
-1.989017 0.40395793 3.1230001 -0.014677674 -0.37562817 0.24977806 0.45133251
-1.9834596 0.40421665 3.1250002 -0.017445266 -0.37466615 0.24798107 0.44963726
-1.9766282 0.40421665 3.1250002 -0.019545376 -0.37361306 0.24658144 0.44807494
-1.9697968 0.40421665 3.1250002 -0.020690113 -0.3732188 0.24582088 0.44737932
-1.9560556 0.40279379 3.1140001 -0.029816389 -0.37283587 0.23273404 0.44052324
-1.9492482 0.40279379 3.1140001 -0.030449241 -0.37219778 0.23228939 0.43979165
-1.9424409 0.40279379 3.1140001 -0.030515134 -0.37191817 0.23223065 0.43952858
-1.936255 0.40292314 3.1150002 -0.030329734 -0.37122005 0.2323093 0.43896678
-1.9313037 0.40331119 3.118 -0.023943707 -0.37077773 0.24155734 0.44316968
-1.9362148 0.40576884 3.1370001 0.011663944 -0.3656038 0.29310465 0.46873504
-1.9293572 0.40576884 3.1370001 0.012615889 -0.36496902 0.2936855 0.46862856
-1.9224995 0.40576884 3.1370001 0.014564961 -0.36449644 0.29491645 0.46909007
-1.9150312 0.40563947 3.1360002 0.014604986 -0.3641392 0.2935555 0.46795887
-1.9081757 0.40563947 3.1360002 0.015673727 -0.36399963 0.29422769 0.46830687
-1.9013202 0.40563947 3.1360002 0.015821368 -0.36394939 0.29294705 0.46746919
-1.8944647 0.40563947 3.1360002 0.018571079 -0.3618755 0.2913968 0.4649848
-1.8882113 0.40576884 3.1370001 0.021543771 -0.35970801 0.2907331 0.46301159
-1.8885504 0.40732104 3.1490002 0.024475992 -0.36196351 0.30452204 0.47365633
-1.8900321 0.40913188 3.1630001 0.025467068 -0.36191607 0.30557951 0.47435287
-1.8849037 0.40951997 3.1660001 0.025634408 -0.36177209 0.30567789 0.47431546
-1.8779826 0.40951997 3.1660001 0.02577579 -0.36143398 0.30574217 0.47410676
-1.8716525 0.40964928 3.1670001 0.025855631 -0.36131153 0.30567062 0.47397158
-1.865907 0.40990803 3.1690001 0.025814146 -0.36139688 0.30565086 0.47402164
-1.859566 0.41003737 3.1700001 0.029704094 -0.35793316 0.30355597 0.47026026
-1.8526361 0.41003737 3.1700001 0.031796932 -0.35644698 0.30277526 0.46876258
-1.8573512 0.41262433 3.1900001 0.026327282 -0.36228022 0.30608279 0.47500184
-1.8510492 0.41909182 3.2400002 0.02816847 -0.36351421 0.30748317 0.47695068
-1.8439664 0.41909182 3.2400002 0.027720779 -0.36368811 0.30722013 0.47688749
-1.8323481 0.41805702 3.2320001 0.026718438 -0.36392936 0.30661941 0.47662765
-1.8252827 0.41805702 3.2320001 0.025351077 -0.36404496 0.30578107 0.47610238
-1.8187801 0.41818637 3.233 0.02339536 -0.36418244 0.30456972 0.47533032
-1.8122728 0.41831571 3.2340002 0.022735685 -0.36187989 0.30194199 0.47185051
-1.8113433 0.41973856 3.2450001 0.017663926 -0.36328837 0.3008638 0.472027
-1.8042496 0.41973856 3.2450001 0.019423634 -0.35858217 0.29753003 0.46635026
-1.8054632 0.42167878 3.2600002 0.015390635 -0.36024913 0.29917538 0.468532
-1.7983366 0.42167878 3.2600002 0.018483847 -0.35773355 0.29891628 0.46654677
-1.7846309 0.42180815 3.2610002 0.024276555 -0.35241264 0.29821426 0.46229401
-2.0027668 0.40802881 3.1020002 -0.025661975 -0.37701023 0.22468056 0.43963236
-1.9959857 0.40802881 3.1020002 -0.027654558 -0.37576085 0.22346596 0.43806168
-1.9936936 0.40894961 3.1090002 -0.032494485 -0.37511355 0.22056766 0.43636701
-1.9888144 0.4093442 3.1120002 -0.036668181 -0.37513459 0.2180355 0.4354423
-1.9909278 0.41118571 3.1260002 -0.014110506 -0.37605184 0.25015378 0.45187497
-1.9853636 0.41144881 3.1280003 -0.016989917 -0.37552509 0.2483137 0.45051908
-1.9791583 0.41158035 3.1290002 -0.018699497 -0.37466469 0.24718001 0.44924521
-1.970427 0.41118571 3.1260002 -0.020256191 -0.37351152 0.24611753 0.44776669
-1.9579401 0.4100019 3.1170001 -0.025611117 -0.37269753 0.23826165 0.44308916
-1.9498742 0.40973878 3.1150002 -0.029949754 -0.37232655 0.23261927 0.44004068
-1.9436884 0.40987036 3.1160002 -0.030333161 -0.37177384 0.23233984 0.43945158
-1.9374983 0.4100019 3.1170001 -0.030850649 -0.37081048 0.23194753 0.43846533
-1.9325426 0.41039649 3.1200001 -0.023513392 -0.37030014 0.24180718 0.44288349
-1.9362148 0.41263264 3.1370001 0.010781318 -0.36471516 0.29122603 0.46684688
-1.9293572 0.41263264 3.1370001 0.011732817 -0.36411747 0.29138839 0.46650445
-1.9218867 0.4125011 3.1360002 0.010530025 -0.36415806 0.2880384 0.46442232
-1.9081757 0.4125011 3.1360002 0.012832612 -0.36353922 0.28930682 0.4647837
-1.9013202 0.4125011 3.1360002 0.012483358 -0.36349475 0.28758883 0.46367186
-1.8944647 0.4125011 3.1360002 0.013739288 -0.36311781 0.28835183 0.46388587
-1.8849037 0.41644722 3.1660001 0.025721967 -0.36121994 0.30569398 0.47390959
-1.8785757 0.41657874 3.1670001 0.025984406 -0.36133069 0.3058641 0.47411802
-1.8722435 0.41671029 3.1680002 0.025957793 -0.36142862 0.30585435 0.4741849
-1.865907 0.41684183 3.1690001 0.02576834 -0.36150891 0.3056303 0.47409132
-1.859566 0.41697335 3.1700001 0.027899921 -0.35963637 0.30471647 0.47219577
-1.8637403 0.4194726 3.1890001 0.025629789 -0.36165711 0.30545938 0.4740867
-1.856769 0.4194726 3.1890001 0.025986433 -0.36189705 0.30569613 0.47444165
-1.8238441 0.42315564 3.2170002 0.027953774 -0.36106175 0.30516797 0.47357628
-1.8173761 0.42328715 3.2180002 0.028734297 -0.3597042 0.30355406 0.47154832
-1.8103415 0.42328715 3.2180002 0.028647244 -0.35810825 0.30140826 0.4689447
-1.8038671 0.42341867 3.2190001 0.026101083 -0.35809919 0.29979211 0.46775165
-1.8052032 0.42539176 3.2340002 0.022116184 -0.35950202 0.29934207 0.46833375
-1.8053615 0.42710173 3.2470002 0.01937604 -0.3593621 0.29961389 0.4682788
-1.8010325 0.42775944 3.2520001 0.017840415 -0.35775602 0.29849786 0.46627095
-1.7988883 0.42894328 3.2610002 0.018276662 -0.35781831 0.30086586 0.46785495
-1.7917596 0.42894328 3.2610002 0.023161024 -0.35338116 0.29956865 0.46384916
-1.7846309 0.42894328 3.2610002 0.026256502 -0.35112628 0.29938319 0.46217895
-1.999203 0.41548467 3.1070001 -0.027786493 -0.37464312 0.22333626 0.43704537
-1.9936936 0.41575214 3.1090002 -0.032928169 -0.37477875 0.220291 0.43597189
-1.9971224 0.41789174 3.1250002 -0.010997117 -0.37558815 0.2520628 0.45246333
-1.9960229 0.41909525 3.1340001 -0.010575145 -0.37524623 0.25527513 0.45396802
-1.9898065 0.41922897 3.1350002 -0.0035275519 -0.37460628 0.26690489 0.45997885
-1.9829532 0.41922897 3.1350002 -0.0047881007 -0.37411016 0.26607656 0.45910573
-1.9754697 0.41909525 3.1340001 -0.0057985187 -0.37328553 0.26538634 0.45804542
-1.9610808 0.41749054 3.1220002 -0.022453591 -0.37383682 0.24269642 0.44627309
-1.9517521 0.41695565 3.118 -0.029653519 -0.37251601 0.23282091 0.4402875
-1.9449359 0.41695565 3.118 -0.030491859 -0.37127629 0.23220785 0.43897188
-1.9381199 0.41695565 3.118 -0.030381143 -0.37056854 0.23223664 0.43838102
-1.9430724 0.41949645 3.1370001 0.0076729357 -0.36561736 0.28606808 0.46429503
-1.9362148 0.41949645 3.1370001 0.0082602799 -0.36471394 0.28641626 0.46380898
-1.9287421 0.41936272 3.1360002 0.0084736943 -0.36416709 0.28571513 0.4629499
