# .PCD v0.7 - Point Cloud Data file format
VERSION 0.7
FIELDS x y z normal_x normal_y normal_z curvature
SIZE 4 4 4 4 4 4 4
TYPE F F F F F F F
COUNT 1 1 1 1 1 1 1
WIDTH 170
HEIGHT 1
VIEWPOINT 0 0 0 1 0 0 0
POINTS 170
DATA ascii
0.54640901 -1.964124 4.4910002 -0.37281069 0.35472965 0.13174805 0.5312047
0.55622655 -1.964124 4.4910002 -0.37281069 0.35472965 0.13174805 0.5312047
0.54640901 -1.9542975 4.4910002 -0.37281069 0.35472965 0.13174805 0.5312047
0.56604409 -1.9542975 4.4910002 -0.37281069 0.35472965 0.13174805 0.5312047
0.57175845 -1.9403725 4.4590001 -0.37281069 0.35472965 0.13174805 0.5312047
0.54640901 -1.9444712 4.4910002 -0.37281069 0.35472965 0.13174805 0.5312047
0.55622655 -1.9444712 4.4910002 -0.37281069 0.35472965 0.13174805 0.5312047
0.56478369 -1.9401416 4.4810004 -0.37281069 0.35472965 0.13174805 0.5312047
0.57175845 -1.9306161 4.4590001 -0.37281069 0.35472965 0.13174805 0.5312047
0.56201082 -1.9208598 4.4590001 -0.37281069 0.35472965 0.13174805 0.5312047
0.57060444 -1.9169828 4.4500003 -0.37281069 0.35472965 0.13174805 0.5312047
0.55226326 -1.9111034 4.4590001 -0.37281069 0.35472965 0.13174805 0.5312047
0.56087649 -1.9072461 4.4500003 -0.37281069 0.35472965 0.13174805 0.5312047
0.55558282 -1.8796004 4.408 -0.40921661 0.23604673 0.30500042 0.56231803
0.56521893 -1.8796004 4.408 -0.40924108 0.23685461 0.30337641 0.56179678
0.57876742 -1.8923926 4.4380002 -0.40869066 0.25077647 0.27598664 0.55324996
0.545699 -1.8691072 4.4060001 -0.38732708 0.18518645 0.2565251 0.50012141
0.55545676 -1.8695314 4.4070001 -0.39519712 0.19970703 0.27298355 0.52017659
0.56521893 -1.8699555 4.408 -0.40499642 0.22320867 0.29476082 0.54838687
0.4853926 -1.5137912 3.7220001 -0.36817408 0.44892302 0.13406563 0.5958671
0.49339649 -1.5133846 3.7210002 -0.36916459 0.44843 0.13932301 0.59731305
0.49128723 -1.4824743 3.6450002 -0.37468427 0.37817708 0.21308504 0.57342082
0.46930611 -1.480567 3.6600001 -0.37538129 0.40329301 0.19008094 0.58282685
0.48530802 -1.480567 3.6600001 -0.37577909 0.40515456 0.19446611 0.58581328
0.47730708 -1.4725587 3.6600001 -0.37534976 0.41390359 0.18451336 0.58842909
0.49115244 -1.4661213 3.6440003 -0.37501103 0.3814927 0.21325703 0.57588935
0.55399716 -1.633281 4.473 0.032650828 -0.47524366 -0.25900444 0.54222316
0.56778347 -1.6168497 4.428 0.033195287 -0.45943183 -0.27220008 0.53504431
0.56377542 -1.623494 4.473 0.031875759 -0.47201353 -0.26044348 0.54004043
0.56778347 -1.6071612 4.428 0.03128472 -0.45459849 -0.27280265 0.53109306
0.57746333 -1.6071612 4.428 0.032592595 -0.45685667 -0.27315885 0.53328794
0.56377542 -1.6137069 4.473 0.030516088 -0.46600753 -0.26310664 0.53602177
0.56503582 -1.6075057 4.4830003 0.029728264 -0.46559155 -0.26219204 0.53516722
0.44549015 -1.6636292 4.6680002 -0.076112688 -0.52997726 0.047817469 0.53754586
0.44539472 -1.6530612 4.6670003 -0.077460408 -0.52582633 0.045649484 0.53345788
0.46579933 -1.6530612 4.6670003 -0.074786454 -0.5290159 0.043953642 0.5360809
0.44539472 -1.6428497 4.6670003 -0.078557193 -0.52147025 0.04285787 0.52909285
0.45549941 -1.6424977 4.6660004 -0.076889157 -0.52240223 0.040550962 0.52958512
0.46569952 -1.6424977 4.6660004 -0.07614097 -0.52408212 0.040958107 0.53116578
0.43509915 -1.6322885 4.6660004 -0.08003518 -0.5148077 0.038458243 0.52240944
0.44529927 -1.6322885 4.6660004 -0.078116208 -0.51676393 0.036765993 0.52392638
0.46569952 -1.6322885 4.6660004 -0.076541096 -0.51885378 0.035938695 0.52569896
0.47589967 -1.6322885 4.6660004 -0.075444341 -0.52088737 0.036016181 0.5275535
0.46569952 -1.6220791 4.6660004 -0.076155543 -0.51479954 0.030890882 0.52131802
0.47589967 -1.6220791 4.6660004 -0.075086594 -0.51605606 0.030169398 0.52236199
0.48947391 -1.3685184 4.1730003 -0.39170396 -0.071064278 0.21558797 0.45272541
0.46772847 -1.3492893 4.1420002 -0.3435427 -0.039995041 0.2061519 0.40264103
0.48583773 -1.3492893 4.1420002 -0.37232998 -0.03849832 0.20795366 0.42820144
0.49871579 -1.3597136 4.1740003 -0.38500151 -0.066460893 0.21320245 0.44508258
0.48759717 -1.34508 4.1570001 -0.35389894 -0.052338604 0.20746398 0.41355181
0.4991937 -1.3518749 4.178 -0.37510282 -0.065291069 0.21138003 0.43548429
0.50832707 -1.3518749 4.178 -0.3925162 -0.05960387 0.21220484 0.45016938
0.51746035 -1.3518749 4.178 -0.42500561 -0.046978422 0.21219444 0.47735021
0.4991937 -1.3427334 4.178 -0.35529301 -0.057089135 0.20810544 0.41569239
0.51746035 -1.3427334 4.178 -0.39669234 -0.048051342 0.2103864 0.45159295
0.50844872 -1.3339111 4.1790004 -0.35046652 -0.048332863 0.2062819 0.40953031
0.50528532 -0.99848622 4.1530004 -0.3576563 0.029393155 0.19262096 0.40728959
0.55598348 -0.95565206 4.125 -0.43917045 0.055354699 0.18470418 0.47963578
0.54749638 -0.94754446 4.1290002 -0.40056008 0.047597289 0.188739 0.44534963
0.52621561 -0.94896585 4.1750002 -0.37212804 0.032260224 0.19427016 0.42102364
0.53149557 -0.9421469 4.145 -0.37080526 0.037483439 0.19195446 0.41922316
0.54016554 -0.94146508 4.1420002 -0.38631436 0.040692907 0.19071594 0.43274388
0.54935277 -0.94169235 4.1430001 -0.40018204 0.045097981 0.18997574 0.44527552
0.53175205 -0.93352783 4.1470003 -0.35646373 0.035508823 0.19108084 0.40600386
0.54961795 -0.93307757 4.145 -0.38037997 0.041862346 0.19008878 0.42728812
0.54081762 -0.92445415 4.1470003 -0.35382566 0.033142392 0.18990013 0.40293059
0.40200311 -0.77382547 4.118 -0.35653692 0.040341765 0.18822536 0.40518489
0.40083167 -0.75360245 4.1060004 -0.35820726 0.03425996 0.190788 0.40729135
0.40083167 -0.74461848 4.1060004 -0.3550505 0.031940427 0.19093138 0.40439564
0.39185575 -0.73563445 4.1060004 -0.38134873 0.03175997 0.19041309 0.42742565
0.39185575 -0.72665048 4.1060004 -0.37910882 0.032304645 0.19059405 0.42555043
0.40083167 -0.72665048 4.1060004 -0.35305807 0.030100703 0.1910632 0.40256825
0.4009293 -0.71784133 4.1070004 -0.3509796 0.029764472 0.19068843 0.40054297
0.3920466 -0.70902771 4.1080003 -0.37672555 0.030416634 0.19009027 0.42306221
0.4010269 -0.70003939 4.1080003 -0.35306329 0.027786236 0.19003734 0.40192032
0.39214203 -0.69121921 4.1090002 -0.38230619 0.02908019 0.19029501 0.42803723
0.40112454 -0.69121921 4.1090002 -0.35939774 0.026764344 0.19121203 0.40797684
0.39214203 -0.68222862 4.1090002 -0.38575676 0.026959885 0.19041118 0.43103543
0.40112454 -0.68222862 4.1090002 -0.35948491 0.025774378 0.19117543 0.40797275
0.38315955 -0.6732381 4.1090002 -0.42199066 0.029604442 0.190052 0.46375889
0.39214203 -0.6732381 4.1090002 -0.38613206 0.026576739 0.19046912 0.43137312
0.40278408 -0.67602348 4.1260004 -0.37292638 0.02816437 0.19079778 0.41984653
0.41330084 -0.6784811 4.1410003 -0.35825568 0.030272584 0.18805707 0.405745
0.37408599 -0.66408587 4.1080003 -0.46561444 0.029589295 0.18539077 0.50203788
0.39214203 -0.66424751 4.1090002 -0.39366332 0.025837492 0.19101694 0.43832165
0.40288171 -0.66715741 4.1270003 -0.37053266 0.031041577 0.19091076 0.41797721
0.41330084 -0.66942054 4.1410003 -0.35943332 0.032079477 0.18859577 0.40717289
0.38232031 -0.65382177 4.1000004 -0.43696001 0.024939798 0.1906555 0.47739455
0.39214203 -0.65525699 4.1090002 -0.39458519 0.027907668 0.19120359 0.43935764
0.40288171 -0.65812743 4.1270003 -0.37758991 0.030637216 0.19117367 0.42433497
0.41310123 -0.66004109 4.1390004 -0.35872832 0.033936538 0.18936846 0.40706033
0.37335747 -0.64485091 4.1000004 -0.48337603 0.025040781 0.18249863 0.51728636
0.38232031 -0.64485091 4.1000004 -0.43654966 0.02572771 0.1903145 0.47692466
0.39128312 -0.64485091 4.1000004 -0.39685163 0.029818693 0.19512847 0.44323301
0.40131977 -0.64658099 4.1110001 -0.36400521 0.031779192 0.19109866 0.41234499
0.37335747 -0.63588005 4.1000004 -0.48434886 0.025386527 0.18113372 0.51773328
0.38232031 -0.63588005 4.1000004 -0.43694216 0.027909024 0.18977848 0.47719306
0.39128312 -0.63588005 4.1000004 -0.39657483 0.032076806 0.19469929 0.44295409
0.40024593 -0.63588005 4.1000004 -0.35244629 0.034663502 0.19368577 0.403651
0.37335747 -0.6269092 4.1000004 -0.4818998 0.026512174 0.18013376 0.515149
0.38232031 -0.6269092 4.1000004 -0.43610111 0.029850939 0.18786302 0.47578123
0.39128312 -0.6269092 4.1000004 -0.39561474 0.03443183 0.19365013 0.44181097
0.40024593 -0.6269092 4.1000004 -0.35292852 0.03819333 0.19370601 0.4043999
0.38232031 -0.61793834 4.1000004 -0.43636769 0.030655164 0.18686134 0.47568232
0.39128312 -0.61793834 4.1000004 -0.3941302 0.036005221 0.19180989 0.43980226
0.40034357 -0.61808902 4.1010003 -0.35597911 0.040734753 0.19354886 0.40723655
0.37645361 -0.61401749 4.1340003 -0.4824906 0.030318584 0.17764223 0.51504678
0.38241357 -0.60911596 4.1010003 -0.43599722 0.031218225 0.18579713 0.47496182
0.39137855 -0.60911596 4.1010003 -0.39489043 0.037483886 0.19130579 0.44038776
0.40034357 -0.60911596 4.1010003 -0.35674807 0.041900862 0.19317716 0.4078508
0.37654468 -0.60511851 4.1350002 -0.48246115 0.029474217 0.17458585 0.51392382
0.38269329 -0.60058194 4.1040001 -0.43604711 0.030304201 0.18221721 0.47355941
0.39147401 -0.60028929 4.1020002 -0.399212 0.036926683 0.18916458 0.44330242
0.4004412 -0.60028929 4.1020002 -0.36145738 0.041629873 0.19178802 0.41129929
0.37718213 -0.59708017 4.1420002 -0.48631668 0.028460465 0.17223689 0.51670057
0.38297305 -0.59203482 4.1070004 -0.44055825 0.031514097 0.18053582 0.47715604
0.39166486 -0.59160233 4.1040001 -0.39842898 0.036334395 0.18518922 0.44086379
0.4005388 -0.5914582 4.1030002 -0.36678165 0.041598991 0.18927142 0.41482881
0.38465151 -0.58560395 4.125 -0.44949985 0.030796023 0.1780124 0.48444495
0.3920466 -0.58319056 4.1080003 -0.40523687 0.037888743 0.18530461 0.44720271
0.4010269 -0.58319056 4.1080003 -0.37594143 0.04256098 0.18933618 0.42307398
0.39233291 -0.57462156 4.1110001 -0.40703136 0.035154626 0.18273357 0.44755104
0.40122214 -0.57448179 4.1100001 -0.38585773 0.036879491 0.18765897 0.43065318
0.40131977 -0.56562662 4.1110001 -0.39143598 0.035856143 0.18712679 0.4353438
0.41030663 -0.56562662 4.1110001 -0.35010248 0.04714017 0.189271 0.40077108
0.39414617 -0.55920428 4.1300001 -0.44087109 0.026028709 0.17830116 0.47627315
0.4014174 -0.55676711 4.112 -0.39647597 0.028836906 0.18506622 0.4384909
0.41040644 -0.55676711 4.112 -0.35523951 0.040802803 0.18773574 0.40386221
0.36910513 -0.55323166 4.1530004 -0.49948925 0.0040205177 0.14398524 0.51984364
0.37818381 -0.55323166 4.1530004 -0.48898783 0.0084029138 0.15230569 0.51222724
0.38726249 -0.55323166 4.1530004 -0.48252553 0.01827623 0.16761926 0.51113707
0.4014174 -0.54776996 4.112 -0.40023193 0.023268778 0.18242112 0.4404594
0.41050625 -0.54790318 4.1130004 -0.36119607 0.036811985 0.18739918 0.40857825
0.3942416 -0.54126233 4.131 -0.4426235 0.014147645 0.1708079 0.47464836
0.40249121 -0.54021412 4.1230001 -0.41478842 0.022440486 0.18113294 0.45316899
0.41100529 -0.53955901 4.118 -0.38441047 0.033332057 0.18716836 0.42885244
0.42051741 -0.54021412 4.1230001 -0.35635883 0.043557018 0.18967882 0.40603802
0.37026054 -0.53673291 4.1660004 -0.50868416 -0.0021193642 0.14092019 0.52784705
0.38735574 -0.53518683 4.1540003 -0.47916627 0.0026564118 0.15586025 0.50388467
0.39433703 -0.53235245 4.132 -0.44315019 0.0058931126 0.16392314 0.4725332
0.40258884 -0.53132176 4.1240001 -0.42479488 0.015772806 0.17909133 0.46127343
0.41160414 -0.53132176 4.1240001 -0.40086386 0.026337016 0.18551466 0.44249424
0.42061943 -0.53132176 4.1240001 -0.36237904 0.039524242 0.18904787 0.41063347
0.37936762 -0.52761763 4.1660004 -0.49602777 0.00025544153 0.1472393 0.51741958
0.38735574 -0.52609783 4.1540003 -0.47935632 -0.0013860418 0.1525307 0.50304073
0.39395529 -0.52280498 4.1280003 -0.44687119 0.0017369618 0.16161212 0.47520033
0.40258884 -0.5222984 4.1240001 -0.42107368 0.0074335858 0.16864237 0.45365027
0.41160414 -0.5222984 4.1240001 -0.40666819 0.024749015 0.18471912 0.44733956
0.42061943 -0.5222984 4.1240001 -0.37597638 0.034589291 0.18875766 0.4221186
0.42994723 -0.52267832 4.1270003 -0.35193592 0.042317759 0.19117862 0.40273932
0.37818381 -0.51688433 4.1530004 -0.49600172 -0.0093015535 0.14311823 0.51632071
0.38614351 -0.51539081 4.1410003 -0.48045424 -0.0078126173 0.14900726 0.50309092
0.39357355 -0.51327503 4.1240001 -0.4479461 -0.0032114461 0.1579912 0.47500235
0.40258884 -0.51327503 4.1240001 -0.42783728 0.0021747379 0.16586661 0.45886949
0.41170394 -0.51339942 4.125 -0.41003913 0.017365389 0.17929766 0.44786301
0.42072141 -0.51339942 4.125 -0.38353777 0.029112689 0.18545121 0.42701396
0.43088487 -0.51476854 4.1360002 -0.3745065 0.040437449 0.1903142 0.42203057
0.37754637 -0.50694162 4.1460004 -0.49610388 -0.01153915 0.14342645 0.51654947
0.38465151 -0.50437391 4.125 -0.48219353 -0.012364895 0.14653799 0.50411987
0.39366901 -0.50437391 4.125 -0.45836106 -0.0088289604 0.1539008 0.48358893
0.40268648 -0.50437391 4.125 -0.43565181 -0.00048883236 0.16310781 0.46518481
0.41170394 -0.50437391 4.125 -0.41307995 0.0086333081 0.17227864 0.44764885
0.42184335 -0.50571889 4.1360002 -0.41027367 0.022396477 0.18280336 0.44971451
0.43098903 -0.50584114 4.1370001 -0.38340262 0.034854364 0.18897238 0.42886239
0.44003275 -0.50584114 4.1370001 -0.35495448 0.04688631 0.19045287 0.40554076
0.37763745 -0.49799022 4.1470003 -0.49537772 -0.014920892 0.14205346 0.51555884
0.38465151 -0.49534833 4.125 -0.48432118 -0.015989494 0.1455093 0.50596011
0.39366901 -0.49534833 4.125 -0.46774393 -0.01225345 0.15163645 0.49186194
0.42184335 -0.49666926 4.1360002 -0.41529238 0.018331734 0.18247712 0.45398426
0.38670301 -0.48891652 4.1470003 -0.49024421 -0.01666376 0.14671227 0.51199764
