# .PCD v0.7 - Point Cloud Data file format
VERSION 0.7
FIELDS x y z normal_x normal_y normal_z curvature
SIZE 4 4 4 4 4 4 4
TYPE F F F F F F F
COUNT 1 1 1 1 1 1 1
WIDTH 621
HEIGHT 1
VIEWPOINT 0 0 0 1 0 0 0
POINTS 621
DATA ascii
-0.71321881 -2.6577926 6.2330003 0.04276678 -0.16769512 0.37711746 0.4149316
0.55558282 -1.8796004 4.408 -0.40921661 0.23604673 0.30500042 0.56231803
0.56521893 -1.8796004 4.408 -0.40924108 0.23685461 0.30337641 0.56179678
0.57876742 -1.8923926 4.4380002 -0.40869066 0.25077647 0.27598664 0.55324996
-0.7118457 -2.6390641 6.2210002 0.04276678 -0.16769512 0.37711746 0.4149316
0.545699 -1.8691072 4.4060001 -0.38732708 0.18518645 0.2565251 0.50012141
0.55545676 -1.8695314 4.4070001 -0.39519712 0.19970703 0.27298355 0.52017659
0.56521893 -1.8699555 4.408 -0.40499642 0.22320867 0.29476082 0.54838687
-0.69813401 -2.6250303 6.2200003 0.04276678 -0.16769512 0.37711746 0.4149316
-0.7118457 -2.6118407 6.2210002 0.04276678 -0.16769512 0.37711746 0.4149316
-0.68464684 -2.6118407 6.2210002 0.04276678 -0.16769512 0.37711746 0.4149316
-0.71390539 -2.6057467 6.2390003 0.04276678 -0.16769512 0.37711746 0.4149316
-0.68662781 -2.6057467 6.2390003 0.04276678 -0.16769512 0.37711746 0.4149316
-0.71665162 -2.6020668 6.2630005 0.04276678 -0.16769512 0.37711746 0.4149316
-0.68915904 -2.6016514 6.2620001 0.04276678 -0.16769512 0.37711746 0.4149316
-0.7192834 -2.5978689 6.2860003 0.04276678 -0.16769512 0.37711746 0.4149316
-0.69180036 -2.5978689 6.2860003 0.04276678 -0.16769512 0.37711746 0.4149316
0.4853926 -1.5137912 3.7220001 -0.36817408 0.44892302 0.13406563 0.5958671
0.49339649 -1.5133846 3.7210002 -0.36916459 0.44843 0.13932301 0.59731305
0.49128723 -1.4824743 3.6450002 -0.37468427 0.37817708 0.21308504 0.57342082
0.46930611 -1.480567 3.6600001 -0.37538129 0.40329301 0.19008094 0.58282685
0.48530802 -1.480567 3.6600001 -0.37577909 0.40515456 0.19446611 0.58581328
0.47730708 -1.4725587 3.6600001 -0.37534976 0.41390359 0.18451336 0.58842909
0.49115244 -1.4661213 3.6440003 -0.37501103 0.3814927 0.21325703 0.57588935
0.55399716 -1.633281 4.473 0.032650828 -0.47524366 -0.25900444 0.54222316
0.56778347 -1.6168497 4.428 0.033195287 -0.45943183 -0.27220008 0.53504431
0.56377542 -1.623494 4.473 0.031875759 -0.47201353 -0.26044348 0.54004043
0.56778347 -1.6071612 4.428 0.03128472 -0.45459849 -0.27280265 0.53109306
0.57746333 -1.6071612 4.428 0.032592595 -0.45685667 -0.27315885 0.53328794
0.56377542 -1.6137069 4.473 0.030516088 -0.46600753 -0.26310664 0.53602177
0.56503582 -1.6075057 4.4830003 0.029728264 -0.46559155 -0.26219204 0.53516722
-0.63271314 -2.3261583 6.5270004 -0.69340163 0.09058439 0.60421801 0.92417032
0.44549015 -1.6636292 4.6680002 -0.076112688 -0.52997726 0.047817469 0.53754586
-0.64698154 -2.3118773 6.5270004 -0.69340163 0.09058439 0.60421801 0.92417032
-0.63494271 -2.3200238 6.5500002 -0.69340163 0.09058439 0.60421801 0.92417032
0.44539472 -1.6530612 4.6670003 -0.077460408 -0.52582633 0.045649484 0.53345788
0.46579933 -1.6530612 4.6670003 -0.074786454 -0.5290159 0.043953642 0.5360809
0.44539472 -1.6428497 4.6670003 -0.078557193 -0.52147025 0.04285787 0.52909285
0.45549941 -1.6424977 4.6660004 -0.076889157 -0.52240223 0.040550962 0.52958512
0.46569952 -1.6424977 4.6660004 -0.07614097 -0.52408212 0.040958107 0.53116578
0.43509915 -1.6322885 4.6660004 -0.08003518 -0.5148077 0.038458243 0.52240944
0.44529927 -1.6322885 4.6660004 -0.078116208 -0.51676393 0.036765993 0.52392638
0.46569952 -1.6322885 4.6660004 -0.076541096 -0.51885378 0.035938695 0.52569896
0.47589967 -1.6322885 4.6660004 -0.075444341 -0.52088737 0.036016181 0.5275535
0.46569952 -1.6220791 4.6660004 -0.076155543 -0.51479954 0.030890882 0.52131802
0.47589967 -1.6220791 4.6660004 -0.075086594 -0.51605606 0.030169398 0.52236199
1.1293485 -0.74012142 2.1290002 -0.261841 0.34185886 0.23682296 0.49144003
1.1340026 -0.74012142 2.1290002 -0.28759581 0.33047149 0.25870728 0.50877523
1.1340026 -0.73546314 2.1290002 -0.28859752 0.33718738 0.29113531 0.53079528
1.1386567 -0.73546314 2.1290002 -0.28834391 0.33446017 0.27302936 0.51918286
-0.61607599 -2.2176633 6.5020003 -0.70418829 0.10883581 0.59271401 0.92684209
-0.61598122 -2.2030978 6.5010004 -0.70418829 0.10883581 0.59271401 0.92684209
-0.57184732 -2.1973367 6.4840002 -0.70418829 0.10883581 0.59271401 0.92684209
-0.64440429 -2.1888735 6.5010004 -0.70418829 0.10883581 0.59271401 0.92684209
-0.61598122 -2.1888735 6.5010004 -0.70418829 0.10883581 0.59271401 0.92684209
-0.6050095 -2.2006581 6.5360003 -0.70418829 0.10883581 0.59271401 0.92684209
-0.59072143 -2.2006581 6.5360003 -0.70418829 0.10883581 0.59271401 0.92684209
-0.64232272 -2.1676245 6.4800005 -0.28827772 0.0083126258 0.6401543 0.70211869
-0.65638703 -2.1531138 6.4790001 -0.30850202 -0.0041451883 0.64830256 0.71797419
-0.61399144 -2.1534462 6.4800005 -0.33667031 -0.0080272369 0.65703952 0.73831719
-0.6050095 -2.1720562 6.5360003 -0.62828559 0.020513913 0.6456089 0.90109622
0.48947391 -1.3685184 4.1730003 -0.39170396 -0.071064278 0.21558797 0.45272541
0.46772847 -1.3492893 4.1420002 -0.3435427 -0.039995041 0.2061519 0.40264103
0.48583773 -1.3492893 4.1420002 -0.37232998 -0.03849832 0.20795366 0.42820144
0.49871579 -1.3597136 4.1740003 -0.38500151 -0.066460893 0.21320245 0.44508258
0.48759717 -1.34508 4.1570001 -0.35389894 -0.052338604 0.20746398 0.41355181
0.4991937 -1.3518749 4.178 -0.37510282 -0.065291069 0.21138003 0.43548429
0.50832707 -1.3518749 4.178 -0.3925162 -0.05960387 0.21220484 0.45016938
0.51746035 -1.3518749 4.178 -0.42500561 -0.046978422 0.21219444 0.47735021
1.0499946 -0.69179237 2.138 -0.16163149 0.37398592 0.53716528 0.67419344
0.4991937 -1.3427334 4.178 -0.35529301 -0.057089135 0.20810544 0.41569239
0.51746035 -1.3427334 4.178 -0.39669234 -0.048051342 0.2103864 0.45159295
1.0139095 -0.77774411 2.4200001 -0.2903862 0.38180605 -0.16819939 0.50832176
1.0448319 -0.68679303 2.1370001 -0.13632521 0.36652285 0.55928886 0.68244237
1.0495034 -0.68679303 2.1370001 -0.15278456 0.37593731 0.54960841 0.68318474
1.054175 -0.68679303 2.1370001 -0.1626451 0.37338889 0.53572059 0.67295557
0.50844872 -1.3339111 4.1790004 -0.35046652 -0.048332863 0.2062819 0.40953031
1.0323725 -0.67701018 2.1210001 -0.13557315 0.37665421 0.57196856 0.69813788
1.0365201 -0.676691 2.1200001 -0.154585 0.38719207 0.56388646 0.70127183
1.0296741 -0.67363739 2.125 -0.11896518 0.36807412 0.58098888 0.69798231
-0.67458683 -1.9806752 6.5180001 -0.33464327 -0.10972214 0.22756034 0.41929558
-0.6603381 -1.9806752 6.5180001 -0.38254055 -0.1072201 0.32998019 0.51644975
-0.64608943 -1.9806752 6.5180001 -0.40297928 -0.077858105 0.33630544 0.53061807
-0.67458683 -1.9664137 6.5180001 -0.33149105 -0.10694532 0.22732878 0.4159351
-0.6603381 -1.9664137 6.5180001 -0.33206552 -0.10706559 0.22742304 0.41647545
-0.64608943 -1.9664137 6.5180001 -0.33206552 -0.10706559 0.22742304 0.41647545
-0.63019276 -1.961285 6.5010004 -0.33206552 -0.10706559 0.22742304 0.41647545
-0.61588651 -1.9609832 6.5000005 -0.33206552 -0.10706559 0.22742304 0.41647545
0.89092094 -0.48012486 1.6390001 -0.7417171 -0.095942661 0.27182597 0.7957629
0.89395809 -0.4798319 1.6380001 -0.72867942 -0.078549564 0.28907657 0.78785086
0.8975389 -0.4798319 1.6380001 -0.71802843 -0.062402368 0.30907607 0.78421098
0.90111965 -0.4798319 1.6380001 -0.70544326 -0.040172011 0.35404485 0.79032379
0.9047004 -0.4798319 1.6380001 -0.68867832 -0.024935842 0.35795188 0.77654952
0.90883565 -0.48012486 1.6390001 -0.68615496 -0.011113226 0.37464839 0.78185266
0.87926334 -0.47799245 1.6440001 -0.75078297 -0.12213014 0.22732484 0.79389381
0.88232017 -0.47770169 1.6430001 -0.75063014 -0.11413687 0.24753684 0.79859084
0.88483346 -0.47712016 1.641 -0.74896747 -0.10531712 0.26946822 0.80290538
0.88733798 -0.47653869 1.6390001 -0.74245381 -0.098372504 0.27317438 0.79720706
0.89037734 -0.47624794 1.6380001 -0.73169553 -0.085691422 0.2770077 0.78705442
0.89395809 -0.47624794 1.6380001 -0.71779311 -0.069586217 0.29569677 0.77942657
0.8975389 -0.47624794 1.6380001 -0.70583874 -0.056907624 0.30843672 0.77238595
0.90111965 -0.47624794 1.6380001 -0.69105244 -0.038022548 0.33748204 0.76999563
0.9052527 -0.47653869 1.6390001 -0.67996454 -0.019044638 0.37429506 0.77640921
0.90939015 -0.47682944 1.6400001 -0.66911191 -0.0064254701 0.38638836 0.77268887
0.91353196 -0.47712016 1.641 -0.66926908 0.0067091286 0.3908731 0.77507925
0.91711926 -0.47712016 1.641 -0.66633761 0.018452078 0.39960223 0.77719253
0.92126769 -0.47741094 1.6420001 -0.67406833 0.029696256 0.39520389 0.7819438
0.92429394 -0.47712016 1.641 -0.67061353 0.032296807 0.39894313 0.78097451
0.92109597 -0.47363117 1.6290001 -0.63002956 0.041396976 0.45294935 0.77705473
0.86594003 -0.47497246 1.646 -0.74454892 -0.13433757 0.19456543 0.78118849
0.86900997 -0.47468388 1.6450001 -0.74519587 -0.13140203 0.20050237 0.78280556
0.87566948 -0.47439533 1.6440001 -0.74530101 -0.123803 0.20770244 0.78354394
0.87872851 -0.47410679 1.6430001 -0.74524927 -0.1158911 0.23052967 0.78865153
0.88178319 -0.47381821 1.6420001 -0.74441731 -0.10799558 0.25698286 0.79489648
0.88429427 -0.47324109 1.6400001 -0.7419585 -0.10031931 0.2760061 0.7979635
0.88733798 -0.47295254 1.6390001 -0.73058295 -0.087869585 0.2810784 0.78770399
0.89037734 -0.47266397 1.6380001 -0.71694213 -0.073656648 0.29140523 0.77739841
0.89395809 -0.47266397 1.6380001 -0.70693517 -0.061069548 0.30665165 0.77299547
0.8975389 -0.47266397 1.6380001 -0.6960578 -0.049455911 0.31803194 0.76686811
0.90111965 -0.47266397 1.6380001 -0.68120098 -0.032815933 0.34854296 0.76589417
0.9052527 -0.47295254 1.6390001 -0.66684926 -0.014016598 0.38523838 0.77025515
0.90994465 -0.47352964 1.641 -0.66695327 -0.001357168 0.38625941 0.77073008
0.91353196 -0.47352964 1.641 -0.6640681 0.0057577789 0.38384223 0.7670427
0.91767818 -0.47381821 1.6420001 -0.66668594 0.016842574 0.39309704 0.77413118
0.92126769 -0.47381821 1.6420001 -0.66372573 0.026945531 0.40278101 0.77684647
0.92485714 -0.47381821 1.6420001 -0.66730338 0.033370376 0.40698093 0.78233039
0.92109597 -0.47006691 1.6290001 -0.63518894 0.041418672 0.43458697 0.77074403
0.86234176 -0.471371 1.646 -0.74445105 -0.13483718 0.19021952 0.78011018
0.86594003 -0.471371 1.646 -0.74327481 -0.13223569 0.19475043 0.77966112
0.86900997 -0.47108459 1.6450001 -0.74139935 -0.12724769 0.20287347 0.77911657
0.87260604 -0.47108459 1.6450001 -0.74226391 -0.12354444 0.20279682 0.7793237
0.87566948 -0.47079822 1.6440001 -0.73992836 -0.118368 0.21132164 0.77856398
0.87872851 -0.47051188 1.6430001 -0.74042386 -0.11083283 0.23342736 0.78421915
0.88124615 -0.46993911 1.641 -0.73717368 -0.10221118 0.25759566 0.78754538
0.88429427 -0.46965274 1.6400001 -0.73251331 -0.091282383 0.28167093 0.79009283
0.88733798 -0.4693664 1.6390001 -0.72197008 -0.078703523 0.28433704 0.77992469
0.89037734 -0.46908 1.6380001 -0.70954943 -0.065475106 0.30303064 0.77432227
0.89395809 -0.46908 1.6380001 -0.69766855 -0.054430127 0.31184196 0.76612628
0.8975389 -0.46908 1.6380001 -0.68675071 -0.041213721 0.33016825 0.76310956
0.90166974 -0.4693664 1.6390001 -0.67542493 -0.029640079 0.34875211 0.76072693
0.90580505 -0.46965274 1.6400001 -0.66538084 -0.011229247 0.38249895 0.76756966
0.91049916 -0.47022548 1.6420001 -0.66827714 -0.0019806325 0.37325788 0.76545388
0.91408867 -0.47022548 1.6420001 -0.66117251 0.0098034143 0.38890004 0.76713002
0.91767818 -0.47022548 1.6420001 -0.65897012 0.018129915 0.40119553 0.77170467
0.92126769 -0.47022548 1.6420001 -0.65889668 0.027298361 0.41108462 0.77709758
0.92485714 -0.47022548 1.6420001 -0.66046655 0.030753881 0.40682089 0.77631503
0.86234176 -0.4677695 1.646 -0.73692167 -0.13218078 0.19134519 0.77274722
0.8654139 -0.46748531 1.6450001 -0.74004531 -0.1266817 0.19489521 0.77569288
0.86900997 -0.46748531 1.6450001 -0.73973954 -0.1227541 0.20133707 0.77641469
0.87207556 -0.46720114 1.6440001 -0.73690903 -0.11741856 0.20559344 0.77400947
0.87513679 -0.46691698 1.6430001 -0.73348618 -0.11216228 0.21557096 0.77269214
0.87765884 -0.46634856 1.641 -0.7328335 -0.10407655 0.2387131 0.77772796
0.88070911 -0.46606439 1.6400001 -0.72910428 -0.098365918 0.24922319 0.77677608
0.88375503 -0.46578023 1.6390001 -0.72146189 -0.082184523 0.28879046 0.78144836
0.88733798 -0.46578023 1.6390001 -0.71361995 -0.072145224 0.29453552 0.77537704
0.89092094 -0.46578023 1.6390001 -0.69928086 -0.05801782 0.31369546 0.76861215
0.89450389 -0.46578023 1.6390001 -0.68912387 -0.046360254 0.32358208 0.76272297
0.89808685 -0.46578023 1.6390001 -0.68073225 -0.035482436 0.33566779 0.75982118
0.90221989 -0.46606439 1.6400001 -0.67536986 -0.022907317 0.35351884 0.76264328
0.90635735 -0.46634856 1.641 -0.66965091 -0.011159152 0.36896378 0.764651
0.91049916 -0.46663278 1.6420001 -0.66095436 -0.00020858645 0.37612328 0.76047975
0.91464537 -0.46691698 1.6430001 -0.66149515 0.012375504 0.39145511 0.76874322
0.91823703 -0.46691698 1.6430001 -0.65725565 0.018219709 0.3953082 0.76719326
0.92182875 -0.46691698 1.6430001 -0.65952778 0.025973052 0.40129834 0.77245831
0.9254204 -0.46691698 1.6430001 -0.65895694 0.033219784 0.4079566 0.7757296
0.92844665 -0.46663278 1.6420001 -0.65933466 0.040778965 0.4094637 0.77720374
0.93714476 -0.46919045 1.651 -0.68439382 0.043476611 0.36756068 0.7780655
-0.54990184 -0.234622 0.83200002 -0.29011956 0.47253713 -0.30715027 0.63387853
-0.54626423 -0.234622 0.83200002 -0.2901257 0.47307599 -0.30716887 0.63429213
0.8654139 -0.46388602 1.6450001 -0.73322022 -0.12174523 0.21067604 0.77254009
0.86900997 -0.46388602 1.6450001 -0.73245192 -0.11729011 0.21250102 0.77162129
0.87207556 -0.46360403 1.6440001 -0.72942203 -0.11263356 0.2176246 0.76948249
0.87460417 -0.46304005 1.6420001 -0.72517055 -0.10630375 0.22260278 0.76597965
0.87765884 -0.46275803 1.641 -0.72276378 -0.10013756 0.23472063 0.76649123
0.88070911 -0.46247604 1.6400001 -0.71978104 -0.091412187 0.26647916 0.77295023
0.88375503 -0.46219409 1.6390001 -0.71422911 -0.076231629 0.29289258 0.77570647
0.88733798 -0.46219409 1.6390001 -0.70504642 -0.064833283 0.30854845 0.77233154
0.89092094 -0.46219409 1.6390001 -0.688254 -0.050917655 0.3200956 0.76075447
0.89450389 -0.46219409 1.6390001 -0.68295014 -0.039834052 0.33339328 0.76102477
0.89863479 -0.46247604 1.6400001 -0.67879057 -0.027996302 0.34257591 0.76085389
0.90277004 -0.46275803 1.641 -0.67069978 -0.01549536 0.36565042 0.764054
0.90690964 -0.46304005 1.6420001 -0.66549104 -0.0050375164 0.37318909 0.76300317
0.91105366 -0.46332207 1.6430001 -0.66068757 0.0015286207 0.37174165 0.75809121
0.91520208 -0.46360403 1.6440001 -0.66326368 0.0083589852 0.37154794 0.76028705
0.91879594 -0.46360403 1.6440001 -0.66182542 0.020716697 0.39182389 0.76939458
0.92238981 -0.46360403 1.6440001 -0.6599111 0.025196284 0.39090902 0.76741606
0.92598367 -0.46360403 1.6440001 -0.65731823 0.032893956 0.39704353 0.7686305
0.93127388 -0.46445006 1.6470001 -0.66102618 0.041462868 0.40428507 0.77596474
0.93771237 -0.46586004 1.6520001 -0.68185294 0.044423372 0.37048855 0.7772764
-0.56323433 -0.23923719 0.85500002 -0.29091844 0.4835549 -0.30690381 0.6423775
0.87154514 -0.45972717 1.6430001 -0.71442783 -0.10510238 0.23223153 0.75854146
0.87407154 -0.45916751 1.641 -0.7137711 -0.10063607 0.23356774 0.75772732
0.87712401 -0.4588877 1.6400001 -0.70986915 -0.095713139 0.23416105 0.75359577
0.88070911 -0.4588877 1.6400001 -0.71167475 -0.085230529 0.27162999 0.76650381
0.88375503 -0.45860791 1.6390001 -0.70187563 -0.073632836 0.2895267 0.76280856
0.88733798 -0.45860791 1.6390001 -0.69259983 -0.057400972 0.31683135 0.76378763
0.89146453 -0.4588877 1.6400001 -0.68882358 -0.045728922 0.32324755 0.76227164
0.89504963 -0.4588877 1.6400001 -0.67970669 -0.034589559 0.33590138 0.75896466
0.89918274 -0.45916751 1.641 -0.67372096 -0.021724194 0.35413837 0.7614367
0.90332019 -0.45944732 1.6420001 -0.6682502 -0.010473013 0.36985725 0.76384711
0.90690964 -0.45944732 1.6420001 -0.65896761 0.00022634864 0.37440547 0.75790358
0.91105366 -0.45972717 1.6430001 -0.66112018 0.0073005855 0.37559214 0.76039636
0.91520208 -0.46000695 1.6440001 -0.66087556 0.013936251 0.37741092 0.76117653
0.9193548 -0.46028674 1.6450001 -0.66057199 0.020046651 0.37977564 0.76222485
0.92295086 -0.46028674 1.6450001 -0.65715951 0.028509349 0.38967228 0.76453644
0.9271102 -0.46056655 1.646 -0.65496743 0.037743419 0.4030478 0.76997036
0.94055051 -0.46364444 1.6570001 -0.6923188 0.04088524 0.33208817 0.76893401
0.87712401 -0.45529935 1.6400001 -0.69629169 -0.090486169 0.24695492 0.74430948
0.88070911 -0.45529935 1.6400001 -0.70052445 -0.07925123 0.28046301 0.75873232
0.88429427 -0.45529935 1.6400001 -0.69217932 -0.069578528 0.29632819 0.7561506
0.88787937 -0.45529935 1.6400001 -0.68804729 -0.052201092 0.32176259 0.76135749
0.89200807 -0.45557696 1.641 -0.68663943 -0.041390896 0.33051652 0.76316977
0.89559543 -0.45557696 1.641 -0.67695814 -0.027571708 0.34437662 0.76001829
0.89973068 -0.45585459 1.6420001 -0.66815263 -0.015423536 0.36872265 0.76329696
0.90332019 -0.45585459 1.6420001 -0.6622498 -0.003841579 0.37238646 0.75977707
0.907462 -0.45613223 1.6430001 -0.66144049 0.004065156 0.37305337 0.75940037
0.91160816 -0.45640984 1.6440001 -0.65881228 0.010067403 0.37470111 0.75798148
0.91520208 -0.45640984 1.6440001 -0.65767896 0.016417027 0.37659091 0.75804472
0.91991371 -0.45696509 1.646 -0.65835303 0.020471394 0.37038589 0.75566757
0.92407298 -0.45724273 1.6470001 -0.65533769 0.034065366 0.39459345 0.76572317
0.92879993 -0.45779794 1.649 -0.66129923 0.035036474 0.38732257 0.7671786
0.93410105 -0.45863083 1.6520001 -0.66609883 0.03737852 0.38201535 0.76877862
0.88429427 -0.45171103 1.6400001 -0.68937433 -0.064550608 0.29456845 0.75244558
0.88842076 -0.45198643 1.641 -0.67875826 -0.052619278 0.3094193 0.74781138
0.89255166 -0.45226189 1.6420001 -0.67801267 -0.033744097 0.34601042 0.76194692
0.89614117 -0.45226189 1.6420001 -0.67142224 -0.022357553 0.35775921 0.76111716
0.89973068 -0.45226189 1.6420001 -0.66504407 -0.0081761479 0.37092626 0.76153576
0.90332019 -0.45226189 1.6420001 -0.65810609 0.0026798546 0.37220234 0.75607234
0.907462 -0.45253733 1.6430001 -0.65678239 0.0090152621 0.37213594 0.75493675
0.91105366 -0.45253733 1.6430001 -0.6536324 0.01650691 0.37214953 0.75233179
0.91575873 -0.45308816 1.6450001 -0.65444469 0.021243215 0.37689072 0.75551021
0.91991371 -0.45336363 1.646 -0.65563524 0.022316307 0.36648336 0.75144237
0.92407298 -0.45363906 1.6470001 -0.65951246 0.028769404 0.36827779 0.75591862
0.92879993 -0.4541899 1.649 -0.66080952 0.038288504 0.38280097 0.76463836
0.93410105 -0.45501623 1.6520001 -0.66056716 0.041078478 0.38414532 0.7652477
0.89309525 -0.44894242 1.6430001 -0.66890407 -0.03641507 0.33524361 0.74909747
0.89668691 -0.44894242 1.6430001 -0.66838521 -0.014419466 0.36718941 0.76274163
0.89973068 -0.44866917 1.6420001 -0.65884846 -0.0020076931 0.37055624 0.75590825
0.90332019 -0.44866917 1.6420001 -0.65393567 0.0086141229 0.36926728 0.75104219
0.90690964 -0.44866917 1.6420001 -0.65230918 0.015404552 0.3687219 0.74946672
0.91105366 -0.44894242 1.6430001 -0.64904416 0.022458881 0.37600356 0.75042748
0.91520208 -0.44921565 1.6440001 -0.64994073 0.026047498 0.37556645 0.75110024
0.92047256 -0.45003539 1.6470001 -0.65700096 0.027773768 0.37016359 0.75461429
0.92463404 -0.45030862 1.6480001 -0.6598202 0.03156209 0.36618066 0.75527954
0.92879993 -0.45058188 1.649 -0.6584906 0.042084545 0.38289908 0.76288444
0.93353558 -0.45112839 1.651 -0.65792018 0.044692427 0.38198552 0.76208222
0.94111812 -0.45304108 1.6580001 -0.6747086 0.047931969 0.3563199 0.76452142
0.89668691 -0.44534752 1.6430001 -0.65779251 -0.0066319406 0.37773144 0.75856179
0.89973068 -0.44507644 1.6420001 -0.65105158 0.0056669712 0.37341416 0.75055873
0.90332019 -0.44507644 1.6420001 -0.64933932 0.013959706 0.36743158 0.74621874
0.90635735 -0.44480535 1.641 -0.64629352 0.02062878 0.36864421 0.7443248
0.90994465 -0.44480535 1.641 -0.64432454 0.02724576 0.36800325 0.74251115
0.91464537 -0.44534752 1.6430001 -0.64760321 0.029655904 0.3730686 0.74796361
0.92103142 -0.44670278 1.6480001 -0.6534754 0.031557202 0.37647632 0.75482476
0.9251951 -0.44697383 1.649 -0.66010904 0.029526711 0.35413504 0.74968487
0.92879993 -0.44697383 1.649 -0.65768659 0.037478924 0.36269641 0.75200069
0.93297017 -0.44724491 1.6500001 -0.65770924 0.048682928 0.37538129 0.75885612
0.93884766 -0.44832912 1.654 -0.66638863 0.050317436 0.3637059 0.76084667
0.89723271 -0.44202146 1.6440001 -0.65556175 -0.0085874796 0.35016543 0.74327034
0.90221989 -0.44094598 1.6400001 -0.6408366 0.021302491 0.36716712 0.73887551
0.90580505 -0.44094598 1.6400001 -0.63503802 0.029258549 0.36948401 0.73528755
0.90939015 -0.44094598 1.6400001 -0.63958037 0.03231737 0.36614114 0.73767662
0.91297531 -0.44094598 1.6400001 -0.64349842 0.036046326 0.36202955 0.73922592
0.92103142 -0.44309694 1.6480001 -0.65183115 0.035980314 0.37405884 0.75239515
0.9251951 -0.44336578 1.649 -0.65582275 0.035537511 0.36443233 0.75111741
0.92879993 -0.44336578 1.649 -0.65757203 0.041532516 0.36034346 0.75098157
0.93297017 -0.44363469 1.6500001 -0.66263402 0.051739007 0.36459172 0.75808173
0.93998289 -0.44524789 1.6560001 -0.67146957 0.049471498 0.34408501 0.75611728
0.89863479 -0.43735763 1.6400001 -0.64280176 0.019376397 0.36045456 0.73722249
0.90111965 -0.43682426 1.6380001 -0.63908613 0.026576996 0.3580043 0.73301059
0.9047004 -0.43682426 1.6380001 -0.6324352 0.03355521 0.36257663 0.72976846
0.90828115 -0.43682426 1.6380001 -0.63275403 0.037047416 0.36392686 0.73088503
0.9118619 -0.43682426 1.6380001 -0.63119513 0.042170167 0.36783746 0.73177183
0.92159033 -0.43975776 1.649 -0.65178621 0.037517101 0.37155011 0.75118726
0.9251951 -0.43975776 1.649 -0.65449101 0.041088164 0.36445493 0.75024933
0.92879993 -0.43975776 1.649 -0.66069007 0.042052776 0.34830147 0.74805999
0.9324047 -0.43975776 1.649 -0.66097587 0.052876353 0.35821158 0.75365812
0.90414804 -0.4329758 1.6370001 -0.63136899 0.035411209 0.35714528 0.72624618
0.90772665 -0.4329758 1.6370001 -0.62935543 0.040860772 0.36196104 0.72716826
0.91130519 -0.4329758 1.6370001 -0.62835479 0.046791762 0.36373591 0.72754592
0.92159033 -0.43614972 1.649 -0.65037668 0.041634381 0.36652082 0.74770367
0.9251951 -0.43614972 1.649 -0.6572355 0.043428332 0.35587418 0.74865943
0.92879993 -0.43614972 1.649 -0.65775895 0.047464609 0.35002232 0.74660254
1.0539314 -0.40784892 1.5420001 -0.5370096 0.252487 0.49408966 0.7721746
0.90001935 -0.42913172 1.636 -0.60762793 0.042357653 0.36926737 0.71229506
0.90359575 -0.42913172 1.636 -0.61680579 0.043458402 0.36128217 0.71614438
0.90717214 -0.42913172 1.636 -0.6278742 0.045386285 0.3563199 0.72336006
0.91074854 -0.42913172 1.636 -0.62746996 0.050348282 0.35878086 0.72455311
0.92103142 -0.43227938 1.6480001 -0.65207452 0.04598704 0.35607773 0.74438387
0.92463404 -0.43227938 1.6480001 -0.6530028 0.049255908 0.35155523 0.74325627
0.92823666 -0.43227938 1.6480001 -0.65408826 0.053331614 0.34437558 0.74112773
1.0485477 -0.40499961 1.544 -0.54162812 0.23947078 0.49341553 0.77082175
1.0512418 -0.40473732 1.5430001 -0.53825539 0.24482331 0.49255893 0.76959187
1.0539314 -0.404475 1.5420001 -0.53462106 0.25107193 0.49210149 0.76877868
1.0592974 -0.40395039 1.5400001 -0.52568263 0.26219067 0.48718172 0.76317245
0.90717214 -0.42555213 1.636 -0.61869442 0.052143991 0.35605764 0.71573657
0.91074854 -0.42555213 1.636 -0.62626779 0.053271532 0.35518575 0.72194606
0.92103142 -0.42867354 1.6480001 -0.6519872 0.048845023 0.35077265 0.74196672
0.92463404 -0.42867354 1.6480001 -0.65505278 0.052193761 0.34221137 0.74089605
1.049911 -0.40344217 1.5510001 -0.54399586 0.23523895 0.4902764 0.76918125
1.049906 -0.40214157 1.5460001 -0.54009891 0.2380559 0.49080455 0.76763695
1.0512418 -0.40136123 1.5430001 -0.53737378 0.24329415 0.491184 0.76760948
1.0539314 -0.40110108 1.5420001 -0.53306144 0.24916355 0.48973241 0.76555526
1.0566165 -0.40084097 1.5410001 -0.52883136 0.25650096 0.48801154 0.76394409
1.0599853 -0.40084097 1.5410001 -0.52312744 0.26303095 0.48503858 0.76033551
1.0626639 -0.40058085 1.5400001 -0.51596332 0.26934642 0.48048055 0.75473648
1.0660305 -0.40058085 1.5400001 -0.50752354 0.276687 0.47540241 0.74842721
0.90717214 -0.42197254 1.636 -0.6116004 0.057526499 0.35851991 0.71126705
0.91074854 -0.42197254 1.636 -0.62037283 0.058697104 0.35298029 0.71617234
0.92463404 -0.42506769 1.6480001 -0.65251637 0.056292921 0.33795413 0.73699355
1.049234 -0.39979061 1.5500001 -0.54298866 0.23439358 0.48895097 0.76736569
1.0519433 -0.39953265 1.549 -0.53995812 0.23829201 0.48815566 0.76592022
1.0512418 -0.39798513 1.5430001 -0.53541261 0.24211092 0.48871493 0.76428181
1.0539314 -0.39772716 1.5420001 -0.53078526 0.24755523 0.48674417 0.76153564
1.0566165 -0.39746922 1.5410001 -0.52549589 0.25562367 0.48524517 0.75957376
1.0599853 -0.39746922 1.5410001 -0.51959389 0.26335299 0.48226559 0.75624913
1.063354 -0.39746922 1.5410001 -0.51257563 0.27063164 0.47790346 0.75124359
1.0660305 -0.39721131 1.5400001 -0.50439256 0.27672917 0.47290987 0.74473798
0.91991371 -0.42095035 1.646 -0.64233232 0.0599204 0.34406066 0.73113543
0.95846868 -0.41736996 1.6320001 -0.60725594 0.14282751 0.39677894 0.73931926
0.95142567 -0.41276664 1.6140001 -0.58540273 0.15862913 0.43800706 0.74813753
1.0458456 -0.39639917 1.5500001 -0.54402274 0.23095593 0.48859572 0.76682931
1.0485572 -0.39614344 1.549 -0.5415135 0.23385561 0.48748875 0.76522583
1.0519433 -0.39614344 1.549 -0.53841913 0.2377259 0.48658133 0.76365578
1.051923 -0.39486474 1.544 -0.53390378 0.24157201 0.48676813 0.76180935
1.0539314 -0.39435324 1.5420001 -0.52894497 0.24674593 0.48452491 0.75857151
1.0573022 -0.39435324 1.5420001 -0.52313578 0.25516731 0.48239613 0.75596786
1.0599853 -0.39409748 1.5410001 -0.51661253 0.26287186 0.47922081 0.75209224
1.063354 -0.39409748 1.5410001 -0.50827885 0.27082753 0.4746688 0.74632794
1.0667228 -0.39409748 1.5410001 -0.50032264 0.27829158 0.46977735 0.74058062
0.95724154 -0.41481334 1.636 -0.60870379 0.1368171 0.38856298 0.73499686
0.94789737 -0.40923518 1.6140001 -0.58397394 0.1527358 0.43293643 0.74282414
0.94435185 -0.40619254 1.6020001 -0.57020152 0.16824208 0.46495163 0.75472856
0.93187886 -0.39934662 1.575 -0.53231466 0.22135633 0.48786455 0.75522804
0.93472803 -0.39909303 1.5740001 -0.54325432 0.21619006 0.48398682 0.75901693
0.93816888 -0.39909303 1.5740001 -0.54345363 0.21554592 0.48257434 0.75807643
1.0451709 -0.3927542 1.549 -0.54289412 0.23029843 0.48679394 0.76468277
1.0485572 -0.3927542 1.549 -0.54060376 0.23366675 0.48587528 0.76349682
1.0505852 -0.39224711 1.5470001 -0.53636509 0.23762643 0.48465168 0.76094753
1.0512418 -0.39123291 1.5430001 -0.53152257 0.24108985 0.48434639 0.75844049
1.0539314 -0.39097932 1.5420001 -0.52624184 0.2475988 0.48244378 0.75563723
1.0573022 -0.39097932 1.5420001 -0.51978463 0.2541647 0.47917277 0.75125384
1.0606731 -0.39097932 1.5420001 -0.51231045 0.26403397 0.4760893 0.74755394
1.063354 -0.39072576 1.5410001 -0.50409818 0.27182645 0.47176316 0.7420007
1.0667228 -0.39072576 1.5410001 -0.49491507 0.27943158 0.46595204 0.73493826
1.0707858 -0.39097932 1.5420001 -0.482831 0.28805757 0.45784408 0.72506839
0.95424807 -0.41148511 1.6370001 -0.61248559 0.12316385 0.36729717 0.72471726
0.95314574 -0.40947419 1.6290001 -0.60611081 0.14109129 0.38924062 0.73401999
0.94789737 -0.40570372 1.6140001 -0.58244771 0.15239429 0.42942446 0.73950976
0.92902529 -0.39615184 1.5760001 -0.52960879 0.22251114 0.48895413 0.75436914
0.92832881 -0.39439225 1.5690001 -0.51547706 0.2279855 0.4975532 0.7518332
0.9281956 -0.39288411 1.5630001 -0.50288731 0.23130657 0.50712866 0.75071824
0.93161243 -0.39288411 1.5630001 -0.51233983 0.22818156 0.5021776 0.75282216
0.93562746 -0.39313546 1.5640001 -0.52293336 0.22575171 0.49633321 0.7554931
0.93964684 -0.39338681 1.5650001 -0.53668225 0.22205415 0.49208158 0.76123595
0.94367063 -0.39363819 1.5660001 -0.54284829 0.21903935 0.48800358 0.76210886
1.0451709 -0.38936496 1.549 -0.54284835 0.22989383 0.48412597 0.76283252
1.0478802 -0.38911361 1.5480001 -0.53864384 0.23360468 0.48358077 0.76063043
1.0485477 -0.38810813 1.544 -0.5340693 0.23722681 0.48238969 0.75776404
1.0512418 -0.38785678 1.5430001 -0.52884388 0.24252851 0.48028612 0.75443405
1.0546148 -0.38785678 1.5430001 -0.52395427 0.24739502 0.47835508 0.75136942
1.0573022 -0.3876054 1.5420001 -0.51554352 0.25478315 0.47568882 0.74631053
1.0606731 -0.3876054 1.5420001 -0.50748158 0.26384878 0.47215384 0.74167579
1.064044 -0.3876054 1.5420001 -0.4991897 0.2732493 0.46805581 0.73683906
1.0674149 -0.3876054 1.5420001 -0.48956668 0.28141466 0.46151686 0.72929251
1.0707858 -0.3876054 1.5420001 -0.47761214 0.28925419 0.45329228 0.71920455
0.95483094 -0.40815252 1.6380001 -0.61126494 0.1215125 0.36180472 0.72063363
0.95197552 -0.40541157 1.6270001 -0.60487068 0.1419102 0.38920107 0.73313338
0.94084978 -0.39918214 1.6020001 -0.57280082 0.16346185 0.45724574 0.75092888
0.92489892 -0.39095926 1.5690001 -0.49878019 0.23371218 0.50487602 0.74719667
0.92300379 -0.38871667 1.5600001 -0.48110706 0.23727837 0.51677883 0.74486607
0.92700791 -0.38896585 1.5610001 -0.49364418 0.23446183 0.50981581 0.74737477
0.93161243 -0.38946423 1.5630001 -0.51017648 0.22911638 0.50152791 0.75120211
0.93622565 -0.38996255 1.5650001 -0.52407128 0.22539377 0.49507064 0.7553463
0.93964684 -0.38996255 1.5650001 -0.53343415 0.22293857 0.49466816 0.76088774
0.94367063 -0.39021176 1.5660001 -0.54251349 0.21920085 0.48789176 0.76184529
0.94709396 -0.39021176 1.5660001 -0.54514241 0.21828021 0.48747557 0.76318997
1.0438215 -0.38547739 1.5470001 -0.54026091 0.23065446 0.48421401 0.76127958
1.0458494 -0.38497901 1.5450001 -0.53590381 0.23425435 0.48297524 0.75850713
1.0485477 -0.38472983 1.544 -0.5311836 0.23814061 0.48026776 0.75466824
1.0512418 -0.38448068 1.5430001 -0.52640331 0.24258703 0.47807559 0.75133562
1.0546148 -0.38448068 1.5430001 -0.52043641 0.24826521 0.47494617 0.74703646
1.0573022 -0.38423148 1.5420001 -0.5115326 0.25548011 0.47121772 0.74093312
1.0606731 -0.38423148 1.5420001 -0.50260812 0.26425493 0.46744469 0.73549312
1.0521859 -0.37874958 1.5200001 -0.45550191 0.29077679 0.44613215 0.7007618
0.94378394 -0.39839381 1.613 -0.58418989 0.14997044 0.42254177 0.73641735
0.93086576 -0.39147809 1.585 -0.53986019 0.20058614 0.47248152 0.74493128
0.91959357 -0.38530338 1.5600001 -0.45505399 0.24380435 0.52554196 0.7366879
0.92300379 -0.38530338 1.5600001 -0.46559504 0.24114981 0.52219051 0.74001008
0.92641407 -0.38530338 1.5600001 -0.48543638 0.23680453 0.51287788 0.74482787
0.92982429 -0.38530338 1.5600001 -0.49510404 0.23582684 0.50922757 0.74836826
0.93622565 -0.3865383 1.5650001 -0.51828903 0.22603098 0.49687064 0.75272435
0.94024724 -0.38678533 1.5660001 -0.53425372 0.22134097 0.49191731 0.75921106
0.94367063 -0.38678533 1.5660001 -0.53438425 0.22243842 0.49163729 0.75944227
0.95112431 -0.38703233 1.567 -0.54304171 0.21906997 0.48759544 0.7619943
1.0451725 -0.38135156 1.544 -0.53308487 0.23569143 0.48117018 0.7558139
1.0478686 -0.38110459 1.5430001 -0.52787125 0.23938942 0.47810054 0.75135577
1.0417036 -0.37764668 1.529 -0.51437402 0.24750522 0.47634017 0.74346447
1.0368443 -0.37468281 1.5170001 -0.48889363 0.26217234 0.46789744 0.72572678
1.0291898 -0.370731 1.501 -0.42835408 0.29109621 0.44243363 0.68115473
1.0081507 -0.36085141 1.4610001 -0.29647565 0.32574081 0.39442152 0.5912472
0.98120648 -0.34899592 1.4130001 0.27429667 0.63348728 -0.37560695 0.78589147
0.97175658 -0.34455016 1.3950001 0.25150949 0.59926927 -0.36444581 0.74511838
0.97480613 -0.34455016 1.3950001 0.25284034 0.60117978 -0.36551696 0.74762821
0.93734771 -0.39217174 1.6020001 -0.56601405 0.16054198 0.45018533 0.7408188
0.92910385 -0.3872757 1.582 -0.52576995 0.20912209 0.47510168 0.73884213
0.91959357 -0.38189009 1.5600001 -0.44832551 0.24513385 0.52717161 0.73416364
0.92641407 -0.38189009 1.5600001 -0.47796613 0.23900102 0.51508188 0.74221456
0.93622565 -0.38311407 1.5650001 -0.51693016 0.22670457 0.49626857 0.75159448
0.94024724 -0.3833589 1.5660001 -0.52394694 0.22438566 0.49464834 0.75468296
0.94367063 -0.3833589 1.5660001 -0.53201401 0.22303244 0.49293953 0.75879627
0.94709396 -0.3833589 1.5660001 -0.53520858 0.22205254 0.4922837 0.76032811
0.95112431 -0.38360369 1.567 -0.54294777 0.21910395 0.48765182 0.7619732
1.0444956 -0.37772846 1.5430001 -0.52995348 0.23793155 0.47931057 0.75312728
0.99946314 -0.35912356 1.4670001 -0.29353324 0.32446998 0.39033109 0.58634537
0.98353255 -0.35226914 1.439 -0.25715065 0.32879713 0.39898947 0.57743102
0.96405119 -0.34419066 1.406 0.25708461 0.61407006 -0.37346706 0.76331657
0.96368551 -0.34296665 1.401 0.24737091 0.60103679 -0.3673926 0.7466023
0.96605814 -0.34272185 1.4000001 0.25169104 0.60402703 -0.36349976 0.74855131
0.96940142 -0.34174266 1.396 0.25064322 0.60004199 -0.36464557 0.74554598
0.97175658 -0.34149787 1.3950001 0.25170529 0.59994191 -0.36612374 0.74654704
0.97410733 -0.34125304 1.3940001 0.25233349 0.59930146 -0.36517358 0.74577892
0.93442857 -0.38890916 1.603 -0.55899715 0.15996459 0.44806433 0.73404914
0.92857105 -0.38502735 1.5870001 -0.52690548 0.198469 0.46638224 0.73111677
0.92910385 -0.38381428 1.582 -0.51929808 0.21071097 0.47280246 0.73322016
0.92018306 -0.37871936 1.5610001 -0.44886392 0.24608344 0.52441448 0.73283452
0.92300379 -0.37847677 1.5600001 -0.45660108 0.24429268 0.52238488 0.7355606
0.92641407 -0.37847677 1.5600001 -0.47005385 0.24162363 0.5162468 0.73881215
0.9368239 -0.37993246 1.5660001 -0.51394463 0.22762093 0.49664056 0.75006813
0.94024724 -0.37993246 1.5660001 -0.52152526 0.22537836 0.49479294 0.75339502
0.94367063 -0.37993246 1.5660001 -0.52931762 0.2235902 0.49507084 0.75846219
0.94769877 -0.38017508 1.567 -0.53570175 0.22084761 0.49076021 0.75933892
0.95112431 -0.38017508 1.567 -0.5400964 0.21992482 0.48991671 0.76163602
0.97656196 -0.34887794 1.4380001 -0.25058737 0.32839254 0.40009496 0.57507533
0.96676087 -0.34426832 1.419 0.26651552 0.63080537 -0.3940205 0.79006207
0.95824367 -0.34014386 1.4020001 0.24146532 0.59754568 -0.36871606 0.74250782
0.96130854 -0.34014386 1.4020001 0.24444324 0.60053211 -0.37073156 0.74688238
0.96368551 -0.33990124 1.401 0.24950582 0.60297108 -0.36726975 0.74880862
0.96605814 -0.33965865 1.4000001 0.2535381 0.60568833 -0.36345574 0.75049317
0.96773416 -0.33917341 1.3980001 0.24805219 0.60048693 -0.36441225 0.74492329
0.96940142 -0.33868819 1.396 0.25034681 0.60030234 -0.36471421 0.74568951
0.97175658 -0.3384456 1.3950001 0.25142419 0.60021019 -0.36618388 0.74669737
0.97410733 -0.33820295 1.3940001 0.25087935 0.60010731 -0.36661229 0.7466417
0.50528532 -0.99848622 4.1530004 -0.3576563 0.029393155 0.19262096 0.40728959
0.93501151 -0.38564217 1.6040001 -0.55775017 0.16115654 0.44713956 0.73279631
0.92564553 -0.38035282 1.582 -0.50470006 0.20770894 0.46616283 0.7177555
0.92910385 -0.38035282 1.582 -0.50800794 0.21464577 0.47601432 0.72851533
0.92418712 -0.37554431 1.562 -0.45442951 0.24586613 0.51973617 0.73285878
0.9368239 -0.37650603 1.5660001 -0.51123637 0.22875965 0.49710006 0.74886715
0.94367063 -0.37650603 1.5660001 -0.52767235 0.22412083 0.49439454 0.75702989
0.95958602 -0.35102093 1.46 -0.26012024 0.32746649 0.412323 0.5872879
0.95420504 -0.34789541 1.447 -0.2417247 0.32757902 0.40065667 0.57119578
0.94837219 -0.33683583 1.401 0.24948686 0.59020042 -0.36527541 0.73756784
0.95211399 -0.33707628 1.4020001 0.24352881 0.59164089 -0.36903393 0.73860091
0.95517886 -0.33707628 1.4020001 0.24392495 0.59249413 -0.3685706 0.73918402
0.95824367 -0.33707628 1.4020001 0.23691154 0.5959264 -0.37248746 0.74162138
0.96130854 -0.33707628 1.4020001 0.24180715 0.59967202 -0.37276056 0.7463429
0.96368551 -0.33683583 1.401 0.24737859 0.60281575 -0.36890489 0.74878156
0.96605814 -0.33659542 1.4000001 0.25311911 0.60595357 -0.36489493 0.7512638
0.96704191 -0.33587411 1.3970001 0.24957055 0.60030282 -0.36422905 0.74519241
0.96870703 -0.33539331 1.3950001 0.25112778 0.60047054 -0.36625254 0.74684066
0.97175658 -0.33539331 1.3950001 0.25030184 0.60063595 -0.36674109 0.74693608
0.97410733 -0.33515286 1.3940001 0.25132483 0.60051566 -0.36803576 0.74781919
0.93150508 -0.38213259 1.6040001 -0.55243134 0.15985945 0.44648004 0.72806585
0.93501151 -0.38213259 1.6040001 -0.5567044 0.16245279 0.44616038 0.73168969
0.92974126 -0.37855902 1.5890001 -0.51992106 0.19732496 0.46182567 0.72286791
0.92910385 -0.37689137 1.582 -0.50229698 0.21778935 0.47410005 0.72422737
0.93256217 -0.37689137 1.582 -0.51296133 0.21592999 0.4728213 0.73028421
0.95973158 -0.35020882 1.47 -0.28950906 0.32390165 0.43537006 0.61504054
0.94787854 -0.34472936 1.447 -0.22842892 0.32958215 0.40500516 0.56994152
0.95104182 -0.34472936 1.447 -0.23223481 0.32746893 0.40221786 0.56828523
0.95420504 -0.34472936 1.447 -0.2417247 0.32757902 0.40065667 0.57119578
0.96596932 -0.34782642 1.46 -0.25779325 0.3271223 0.40308765 0.5796085
0.9459843 -0.33400866 1.4020001 0.24948686 0.59020042 -0.36527541 0.73756784
0.94837219 -0.33377042 1.401 0.24948686 0.59020042 -0.36527541 0.73756784
0.95211399 -0.33400866 1.4020001 0.24745938 0.59093499 -0.36786541 0.73875928
0.95517886 -0.33400866 1.4020001 0.2423335 0.5919922 -0.37022665 0.73908597
0.95824367 -0.33400866 1.4020001 0.23934905 0.59480065 -0.3730641 0.74179012
0.96199417 -0.33424693 1.4030001 0.24395965 0.60394162 -0.37422138 0.75120133
0.96437335 -0.33400866 1.4020001 0.25418687 0.60876346 -0.36760131 0.75520504
0.96536809 -0.33329397 1.399 0.24791142 0.60064173 -0.3652702 0.74542129
0.96634972 -0.33257926 1.396 0.25112778 0.60047054 -0.36625254 0.74684066
0.96870703 -0.33234102 1.3950001 0.25112778 0.60047054 -0.36625254 0.74684066
0.97105998 -0.33210278 1.3940001 0.25185251 0.60061204 -0.36762208 0.74787062
0.97410733 -0.33210278 1.3940001 0.25154215 0.60117406 -0.37103802 0.74990195
0.93551987 -0.38169163 1.6170001 -0.59079993 0.13410553 0.38001227 0.71514904
0.93851793 -0.37862304 1.6040001 -0.56211132 0.16231853 0.4399066 0.73200703
0.94936043 -0.34439591 1.4590001 -0.24324356 0.32667851 0.40938175 0.57747704
0.94406247 -0.34132725 1.4460001 -0.21878876 0.3321825 0.40885755 0.57041937
0.94722348 -0.34132725 1.4460001 -0.22244522 0.32958311 0.40461108 0.56728923
0.95038456 -0.34132725 1.4460001 -0.22842799 0.32911798 0.40263465 0.56799001
0.95354557 -0.34132725 1.4460001 -0.23313791 0.32687628 0.39986837 0.56665343
0.94291943 -0.33094108 1.4020001 0.25049898 0.59000075 -0.36494118 0.73758572
0.94530952 -0.33070502 1.401 0.24948686 0.59020042 -0.36527541 0.73756784
0.94837219 -0.33070502 1.401 0.24844179 0.59039563 -0.36557379 0.73751915
0.95211399 -0.33094108 1.4020001 0.24745938 0.59093499 -0.36786541 0.73875928
0.95517886 -0.33094108 1.4020001 0.24549025 0.59149176 -0.36959645 0.73941159
0.95961064 -0.33141318 1.404 0.24530248 0.60021275 -0.37692806 0.75000232
0.96405119 -0.33188528 1.406 0.25223854 0.61502439 -0.37953544 0.76545829
0.96712482 -0.33188528 1.406 0.25698107 0.6177581 -0.37880856 0.76886946
0.96743822 -0.33094108 1.4020001 0.25801137 0.6119777 -0.36746913 0.75902575
0.96565747 -0.32928875 1.3950001 0.25269142 0.60013914 -0.36524776 0.74660957
0.96870703 -0.32928875 1.3950001 0.25112778 0.60047054 -0.36625254 0.74684066
0.97105998 -0.32905269 1.3940001 0.25321704 0.60085052 -0.37010664 0.74974602
0.97410733 -0.32905269 1.3940001 0.25219125 0.60128206 -0.37222257 0.75079304
0.93198502 -0.37815362 1.6170001 -0.57988882 0.13576457 0.37750244 0.70513201
0.93551987 -0.37815362 1.6170001 -0.58537686 0.13749927 0.3794876 0.71104354
0.93905473 -0.37815362 1.6170001 -0.58948177 0.13932738 0.383039 0.71667272
0.91400945 -0.34471148 1.4740001 -0.2220847 0.31362787 0.50002283 0.63064009
0.94298154 -0.34120357 1.4590001 -0.23739479 0.32639608 0.41037577 0.57558572
0.93774039 -0.33816338 1.4460001 -0.19075069 0.34033287 0.42305911 0.5754922
0.94090146 -0.33816338 1.4460001 -0.20311351 0.33523843 0.41531357 0.57107377
0.94406247 -0.33816338 1.4460001 -0.21962102 0.33157718 0.4080106 0.56978023
0.94722348 -0.33816338 1.4460001 -0.22244522 0.32958311 0.40461108 0.56728923
0.95038456 -0.33816338 1.4460001 -0.22627835 0.32747966 0.40140894 0.56530869
0.95354557 -0.33816338 1.4460001 -0.23313791 0.32687628 0.39986837 0.56665343
0.94253606 -0.32880893 1.406 0.25661176 0.58894616 -0.36688161 0.73980355
0.94291943 -0.32787347 1.4020001 0.26004487 0.5882194 -0.36296213 0.73848957
0.9459843 -0.32787347 1.4020001 0.24938746 0.59036982 -0.36613825 0.73809743
0.94904912 -0.32787347 1.4020001 0.24836138 0.59056312 -0.3664445 0.73805809
0.95211399 -0.32787347 1.4020001 0.24639663 0.59112567 -0.36816022 0.73870343
0.95858532 -0.32904279 1.4070001 0.24968609 0.60724181 -0.38460141 0.76092309
0.96234459 -0.32927665 1.4080001 0.25943646 0.61542022 -0.38413683 0.7704612
0.9661082 -0.32951048 1.409 0.25514996 0.61923134 -0.38454589 0.77228528
0.96918833 -0.32951048 1.409 0.26163086 0.62257159 -0.38108742 0.7754184
0.97226852 -0.32951048 1.409 0.26386672 0.62322676 -0.38035747 0.77634341
0.96634972 -0.32647032 1.396 0.25112778 0.60047054 -0.36625254 0.74684066
0.96870703 -0.32623646 1.3950001 0.25185251 0.60061204 -0.36762208 0.74787062
0.97105998 -0.3260026 1.3940001 0.25385413 0.60096085 -0.37129691 0.75063789
0.97410733 -0.3260026 1.3940001 0.253111 0.60143554 -0.37394834 0.75208193
0.55598348 -0.95565206 4.125 -0.43917045 0.055354699 0.18470418 0.47963578
0.93551987 -0.37461561 1.6170001 -0.58355588 0.1359207 0.37267086 0.70561707
0.92849928 -0.34936324 1.508 -0.39701688 0.26761994 0.57210517 0.74602091
0.91400945 -0.34148636 1.4740001 -0.20067284 0.31442416 0.48057958 0.60834932
0.92367613 -0.34148636 1.4740001 -0.22276476 0.3179794 0.46788257 0.60798776
0.93914795 -0.33777958 1.4580001 -0.22018386 0.32493925 0.40962744 0.56732804
0.93457937 -0.3349995 1.4460001 0.33524978 0.63929278 -0.38250387 0.81694365
0.93774039 -0.3349995 1.4460001 -0.17847124 0.33738148 0.42244005 0.56932753
0.94090146 -0.3349995 1.4460001 -0.19863799 0.33463618 0.41556305 0.56932509
0.94406247 -0.3349995 1.4460001 -0.21145752 0.32992196 0.40777823 0.56554914
0.94722348 -0.3349995 1.4460001 -0.22324853 0.3296698 0.40458301 0.567635
0.9497273 -0.33476782 1.4450001 -0.22392939 0.32917988 0.40387619 0.56711531
0.95288616 -0.33476782 1.4450001 -0.22824273 0.32711598 0.40133694 0.56583649
0.95604497 -0.33476782 1.4450001 -0.23313791 0.32687628 0.39986837 0.56665343
0.94146699 -0.32642758 1.409 0.26930782 0.58770794 -0.37189013 0.74580801
0.94320643 -0.32596427 1.4070001 0.26024964 0.58882546 -0.36942494 0.74223989
0.94359201 -0.32503757 1.4030001 0.26269993 0.58741653 -0.36383641 0.73922014
0.9459843 -0.32480589 1.4020001 0.2589348 0.58862448 -0.36420345 0.73903328
0.95483041 -0.32573256 1.406 0.24378832 0.59597617 -0.37917873 0.74725956
0.9592666 -0.32619593 1.4080001 0.25727212 0.61066264 -0.38769352 0.76772654
0.96302807 -0.32642758 1.409 0.25949451 0.61564755 -0.38635391 0.77176982
0.9661082 -0.32642758 1.409 0.25941512 0.61881113 -0.38404459 0.77311945
0.96918833 -0.32642758 1.409 0.26051146 0.6224075 -0.38232875 0.77552086
0.97295856 -0.32665926 1.4100001 0.26505527 0.62524521 -0.38202962 0.77918708
0.97119528 -0.32503757 1.4030001 0.26135349 0.61837208 -0.37352663 0.76825249
0.97105998 -0.32295248 1.3940001 0.25627786 0.60136104 -0.37592861 0.7540794
0.97410733 -0.32295248 1.3940001 0.25465247 0.60168082 -0.37688005 0.75425875
0.54749638 -0.94754446 4.1290002 -0.40056008 0.047597289 0.188739 0.44534963
0.91082698 -0.34812906 1.5170001 -0.36333841 0.26616198 0.57848758 0.7331472
0.92251748 -0.34629318 1.5090001 -0.3663978 0.27113101 0.58209974 0.73932362
0.92581624 -0.34629318 1.5090001 -0.38106254 0.26961353 0.57574171 0.7412008
0.91723168 -0.33826122 1.4740001 -0.18849079 0.31435454 0.46324912 0.59071761
0.92045391 -0.33826122 1.4740001 -0.19921687 0.31659055 0.45664486 0.59028929
0.92689842 -0.33826122 1.4740001 -0.22253829 0.32009983 0.45144078 0.59647799
0.93012065 -0.33826122 1.4740001 -0.22612342 0.32057333 0.45104015 0.59777611
0.93334287 -0.33826122 1.4740001 -0.23778181 0.32158393 0.45201933 0.60355437
0.94364935 -0.33849072 1.475 -0.27803284 0.32508904 0.43685341 0.61141312
0.93660265 -0.33481896 1.4590001 -0.20130932 0.32254165 0.41054633 0.55955952
0.93141836 -0.33183563 1.4460001 0.34439719 0.63347375 -0.38605988 0.8178879
0.93457937 -0.33183563 1.4460001 0.3398321 0.63848889 -0.3830263 0.81845164
0.93774039 -0.33183563 1.4460001 -0.17511913 0.33573788 0.42139155 0.56653112
0.94090146 -0.33183563 1.4460001 -0.18057406 0.33180323 0.41616878 0.562047
0.94340962 -0.33160612 1.4450001 -0.18921781 0.32971537 0.41026485 0.55931461
0.94591337 -0.33137667 1.4440001 -0.202848 0.33178091 0.40989324 0.5650118
0.94709826 -0.33068818 1.4410001 -0.19815308 0.33468395 0.41305709 0.56735718
0.94892949 -0.33022925 1.439 -0.19363707 0.33867329 0.41992402 0.57317632
0.95141363 -0.32999974 1.4380001 -0.20299958 0.33613986 0.41571611 0.57185549
0.94146699 -0.32334465 1.409 0.27902067 0.58569884 -0.37094116 0.74732393
0.9438768 -0.3231152 1.4080001 0.27412939 0.58672911 -0.37137765 0.74653822
0.94426453 -0.32219726 1.404 0.27584314 0.58486599 -0.36287087 0.74150723
0.95618862 -0.3231152 1.4080001 0.25133982 0.60507917 -0.38539702 0.76014692
0.9592666 -0.3231152 1.4080001 0.25727212 0.61066264 -0.38769352 0.76772654
0.96302807 -0.32334465 1.409 0.26156408 0.61703557 -0.38496616 0.77288264
0.96679389 -0.32357416 1.4100001 0.26727468 0.62117231 -0.38239396 0.77686286
0.96987623 -0.32357416 1.4100001 0.25895914 0.62221706 -0.38541576 0.77637565
0.97295856 -0.32357416 1.4100001 0.26511884 0.62530351 -0.38272223 0.77959526
0.9760409 -0.32357416 1.4100001 0.26695025 0.6260066 -0.3845281 0.78167033
0.97148466 -0.32104984 1.399 0.26262271 0.61173785 -0.36587995 0.759646
0.52621561 -0.94896585 4.1750002 -0.37212804 0.032260224 0.19427016 0.42102364
0.53149557 -0.9421469 4.145 -0.37080526 0.037483439 0.19195446 0.41922316
0.54016554 -0.94146508 4.1420002 -0.38631436 0.040692907 0.19071594 0.43274388
0.54935277 -0.94169235 4.1430001 -0.40018204 0.045097981 0.18997574 0.44527552
0.90170372 -0.34640095 1.524 -0.35370392 0.26262006 0.5822053 0.73009503
0.90206599 -0.34526446 1.5190001 -0.34186301 0.26077026 0.5900631 0.73009992
0.90359849 -0.34458256 1.516 -0.34113398 0.26187551 0.59119093 0.73106623
0.90751076 -0.34480983 1.5170001 -0.35093236 0.26285639 0.58569485 0.73163205
0.9180643 -0.34503716 1.5180001 -0.37245435 0.2666713 0.57329035 0.73382401
0.92138273 -0.34503716 1.5180001 -0.38099396 0.26919705 0.57177895 0.73793948
0.92165536 -0.34390065 1.5130001 -0.37283534 0.27037758 0.5776732 0.73879397
0.92190611 -0.3427642 1.508 -0.36026809 0.27058971 0.58671051 0.73975748
0.9234544 -0.33730906 1.4840001 -0.24754459 0.30822766 0.51597744 0.65001178
0.9217028 -0.33549067 1.4760001 -0.19107544 0.31527221 0.45598876 0.58637202
0.92367613 -0.33503607 1.4740001 -0.19224012 0.31610721 0.45203891 0.5841397
0.92689842 -0.33503607 1.4740001 -0.20442167 0.31817812 0.44760245 0.58598077
0.93012065 -0.33503607 1.4740001 -0.21832302 0.32019168 0.44731295 0.59184164
0.93334287 -0.33503607 1.4740001 -0.22979103 0.32139969 0.44812563 0.59742635
0.9365651 -0.33503607 1.4740001 -0.2380686 0.32224083 0.4477635 0.60083938
0.93978739 -0.33503607 1.4740001 -0.24859399 0.3240658 0.44023624 0.60052103
0.94300961 -0.33503607 1.4740001 -0.2577146 0.32505971 0.43240634 0.59921271
0.93660265 -0.33162665 1.4590001 -0.19414112 0.32134753 0.40527067 0.55244851
0.93141836 -0.32867175 1.4460001 0.36297193 0.62937963 -0.38782838 0.82357645
0.93457937 -0.32867175 1.4460001 0.3585656 0.63470513 -0.38453823 0.8241902
0.94090146 -0.32867175 1.4460001 -0.17997456 0.33177459 0.41458389 0.56066477
0.94340962 -0.32844445 1.4450001 -0.18462659 0.32893729 0.41028786 0.5573355
0.94329309 -0.32730797 1.4400001 0.33543628 0.63938475 -0.38503489 0.81828004
0.94512653 -0.32685339 1.4380001 0.33514485 0.6393714 -0.38368917 0.81751776
0.94213521 -0.32048905 1.4100001 0.27831191 0.58644474 -0.37452602 0.74942958
0.94868326 -0.31957987 1.406 0.2723698 0.58705604 -0.37135345 0.74613905
0.95994788 -0.32026175 1.409 0.26178414 0.6138196 -0.38636923 0.77109444
0.96302807 -0.32026175 1.409 0.2677682 0.61787808 -0.38305175 0.77472693
0.96679389 -0.32048905 1.4100001 0.26727468 0.62117231 -0.38239396 0.77686286
