# .PCD v0.7 - Point Cloud Data file format
VERSION 0.7
FIELDS x y z normal_x normal_y normal_z curvature
SIZE 4 4 4 4 4 4 4
TYPE F F F F F F F
COUNT 1 1 1 1 1 1 1
WIDTH 629
HEIGHT 1
VIEWPOINT 0 0 0 1 0 0 0
POINTS 629
DATA ascii
0.96987623 -0.32357416 1.4100001 0.25895914 0.62221706 -0.38541576 0.77637565
0.97295856 -0.32357416 1.4100001 0.26511884 0.62530351 -0.38272223 0.77959526
0.9760409 -0.32357416 1.4100001 0.26695025 0.6260066 -0.3845281 0.78167033
0.97148466 -0.32104984 1.399 0.26262271 0.61173785 -0.36587995 0.759646
0.90170372 -0.34640095 1.524 -0.35370392 0.26262006 0.5822053 0.73009503
0.90206599 -0.34526446 1.5190001 -0.34186301 0.26077026 0.5900631 0.73009992
0.90359849 -0.34458256 1.516 -0.34113398 0.26187551 0.59119093 0.73106623
0.90751076 -0.34480983 1.5170001 -0.35093236 0.26285639 0.58569485 0.73163205
0.9180643 -0.34503716 1.5180001 -0.37245435 0.2666713 0.57329035 0.73382401
0.92138273 -0.34503716 1.5180001 -0.38099396 0.26919705 0.57177895 0.73793948
0.92165536 -0.34390065 1.5130001 -0.37283534 0.27037758 0.5776732 0.73879397
0.92190611 -0.3427642 1.508 -0.36026809 0.27058971 0.58671051 0.73975748
0.9234544 -0.33730906 1.4840001 -0.24754459 0.30822766 0.51597744 0.65001178
0.9217028 -0.33549067 1.4760001 -0.19107544 0.31527221 0.45598876 0.58637202
0.92367613 -0.33503607 1.4740001 -0.19224012 0.31610721 0.45203891 0.5841397
0.92689842 -0.33503607 1.4740001 -0.20442167 0.31817812 0.44760245 0.58598077
0.93012065 -0.33503607 1.4740001 -0.21832302 0.32019168 0.44731295 0.59184164
0.93334287 -0.33503607 1.4740001 -0.22979103 0.32139969 0.44812563 0.59742635
0.9365651 -0.33503607 1.4740001 -0.2380686 0.32224083 0.4477635 0.60083938
0.93978739 -0.33503607 1.4740001 -0.24859399 0.3240658 0.44023624 0.60052103
0.94300961 -0.33503607 1.4740001 -0.2577146 0.32505971 0.43240634 0.59921271
0.93660265 -0.33162665 1.4590001 -0.19414112 0.32134753 0.40527067 0.55244851
0.93141836 -0.32867175 1.4460001 0.36297193 0.62937963 -0.38782838 0.82357645
0.93457937 -0.32867175 1.4460001 0.3585656 0.63470513 -0.38453823 0.8241902
0.94090146 -0.32867175 1.4460001 -0.17997456 0.33177459 0.41458389 0.56066477
0.94340962 -0.32844445 1.4450001 -0.18462659 0.32893729 0.41028786 0.5573355
0.94329309 -0.32730797 1.4400001 0.33543628 0.63938475 -0.38503489 0.81828004
0.94512653 -0.32685339 1.4380001 0.33514485 0.6393714 -0.38368917 0.81751776
0.94213521 -0.32048905 1.4100001 0.27831191 0.58644474 -0.37452602 0.74942958
0.94868326 -0.31957987 1.406 0.2723698 0.58705604 -0.37135345 0.74613905
0.95994788 -0.32026175 1.409 0.26178414 0.6138196 -0.38636923 0.77109444
0.96302807 -0.32026175 1.409 0.2677682 0.61787808 -0.38305175 0.77472693
0.96679389 -0.32048905 1.4100001 0.26727468 0.62117231 -0.38239396 0.77686286
0.89837217 -0.34306639 1.524 -0.34072393 0.26066077 0.59053946 0.72991347
0.90111202 -0.34284133 1.5230001 -0.34173262 0.26029497 0.58997363 0.72979695
0.89909673 -0.34081531 1.5140001 -0.32270753 0.25794965 0.60170579 0.72988218
0.90300244 -0.34104043 1.5150001 -0.3352319 0.26053029 0.59509027 0.73101908
0.90691257 -0.34126553 1.516 -0.34011814 0.26086211 0.5923683 0.73118371
0.91082698 -0.34149063 1.5170001 -0.34844714 0.26339614 0.58874369 0.73308396
0.91474587 -0.34171575 1.5180001 -0.36347517 0.26406467 0.5788312 0.73272771
0.9180643 -0.34171575 1.5180001 -0.3669332 0.26577181 0.5772931 0.73385417
0.92138273 -0.34171575 1.5180001 -0.37437701 0.26931635 0.57439226 0.73662466
0.91860956 -0.33946466 1.508 -0.33716357 0.26896614 0.59917676 0.73826474
0.92190611 -0.33946466 1.508 -0.34813318 0.26882994 0.59413648 0.7392323
0.92520273 -0.33946466 1.508 -0.35786596 0.27055562 0.58551574 0.73762935
0.92849928 -0.33946466 1.508 -0.37515262 0.27085483 0.57566828 0.73857689
0.92544961 -0.33361182 1.4820001 -0.21060391 0.31463653 0.4735868 0.60632879
0.92806268 -0.33338669 1.4810001 -0.21639377 0.31719351 0.4643209 0.6025213
0.92689842 -0.33181095 1.4740001 -0.18633106 0.31565094 0.4430224 0.5749988
0.93012065 -0.33181095 1.4740001 -0.19698618 0.3179701 0.44024447 0.57768828
0.93334287 -0.33181095 1.4740001 -0.2079888 0.3201651 0.43680003 0.58013731
0.9365651 -0.33181095 1.4740001 -0.2211069 0.32261103 0.43095788 0.58197147
0.93978739 -0.33181095 1.4740001 -0.22926955 0.32396466 0.42685071 0.58285433
0.93469268 -0.32888451 1.4610001 -0.17689976 0.31794035 0.40654048 0.54557747
0.92825729 -0.32550788 1.4460001 0.37255016 0.61972928 -0.39339638 0.82317603
0.93141836 -0.32550788 1.4460001 0.37814733 0.62720406 -0.38673171 0.82821602
0.93774039 -0.32550788 1.4460001 -0.14728752 0.33015409 0.41977149 0.5539887
0.94740838 -0.32775897 1.4560001 -0.20031521 0.32195926 0.40253407 0.55300778
0.95124412 -0.32798406 1.457 -0.22057931 0.32484746 0.40252244 0.56232148
0.94329309 -0.32415724 1.4400001 0.34013987 0.63853019 -0.38504323 0.81955737
0.94512653 -0.32370701 1.4380001 0.33984768 0.63851988 -0.38369936 0.81879747
0.94761062 -0.32348189 1.437 0.33497357 0.63939756 -0.38360801 0.8174299
0.95075202 -0.32348189 1.437 -0.17380768 0.33662054 0.42184815 0.56699061
0.95618862 -0.31695375 1.4080001 0.26616547 0.6031146 -0.38456842 0.76320654
1.0047004 -0.32775897 1.4560001 -0.27542558 0.32504293 0.38705334 0.57560617
0.89170909 -0.33973187 1.524 -0.32559338 0.25626963 0.59890586 0.72826737
0.89504063 -0.33973187 1.524 -0.3281557 0.2580263 0.59806347 0.72934467
0.89837217 -0.33973187 1.524 -0.33775631 0.25998282 0.59251231 0.72989124
0.90170372 -0.33973187 1.524 -0.34390372 0.26048306 0.58909464 0.73017371
0.89850289 -0.33727971 1.5130001 -0.30638108 0.2554628 0.61238992 0.73085707
0.90240639 -0.33750266 1.5140001 -0.31967968 0.25725329 0.60495859 0.73099196
0.90631431 -0.33772561 1.5150001 -0.33008367 0.26019356 0.59977674 0.73238516
0.91082698 -0.33817139 1.5170001 -0.34561485 0.26278806 0.59068757 0.73308867
0.91414326 -0.33817139 1.5170001 -0.34896418 0.26335871 0.58950943 0.7339313
0.91745949 -0.33817139 1.5170001 -0.35511565 0.2642954 0.5859679 0.73438245
0.92077571 -0.33817139 1.5170001 -0.36634856 0.26798144 0.5803678 0.73678499
0.9180004 -0.33594224 1.5070001 -0.33114833 0.26965651 0.59916145 0.73577732
0.92129481 -0.33594224 1.5070001 -0.33502719 0.2711854 0.5927608 0.73290521
0.92458916 -0.33594224 1.5070001 -0.34103712 0.27085912 0.58983159 0.73319322
0.92726785 -0.33571929 1.506 -0.34644955 0.27265155 0.58467871 0.73226726
0.92190939 -0.33259839 1.4920001 -0.24313721 0.29911226 0.54152656 0.66470659
0.9202103 -0.33081502 1.4840001 -0.18449996 0.30808163 0.48327792 0.60208976
0.92283213 -0.33059213 1.483 -0.1881112 0.31099415 0.47284108 0.59639072
0.92544961 -0.33036917 1.4820001 -0.19180363 0.31325436 0.46462563 0.59227854
0.9286893 -0.33036917 1.4820001 -0.19757511 0.31542373 0.45806497 0.59021318
0.93067139 -0.32992333 1.48 -0.19739451 0.31749684 0.44429383 0.58065987
0.93012065 -0.3285858 1.4740001 -0.17590514 0.31493074 0.43163729 0.56252533
0.93334287 -0.3285858 1.4740001 -0.18512008 0.31714046 0.42881447 0.56456125
0.9365651 -0.3285858 1.4740001 -0.20485088 0.32079011 0.42699897 0.57201248
0.93213648 -0.32591075 1.462 -0.15717438 0.31360352 0.40802026 0.53808129
0.92509627 -0.32234401 1.4460001 0.37377611 0.60930496 -0.40239495 0.82029432
0.93141836 -0.32234401 1.4460001 0.38758606 0.62460881 -0.38884839 0.83160222
0.93522567 -0.32256696 1.447 0.38917881 0.63125008 -0.38175178 0.83406907
0.94487399 -0.32479614 1.457 -0.19489908 0.32138747 0.40130264 0.5498358
0.94805908 -0.32479614 1.457 -0.20083025 0.32207978 0.40182593 0.55274969
0.95124412 -0.32479614 1.457 -0.20210765 0.32231027 0.40133482 0.55299282
0.95442921 -0.32479614 1.457 -0.21578383 0.32438076 0.39967358 0.55814379
0.96532851 -0.32100648 1.4400001 -0.23390613 0.32671332 0.39899912 0.56626314
0.96847647 -0.32100648 1.4400001 -0.23962852 0.32701319 0.39789379 0.56804836
0.97902423 -0.32033771 1.437 -0.24844068 0.32780987 0.39414519 0.56967759
1.006771 -0.32836288 1.473 -0.29099256 0.32138154 0.37593338 0.5738368
0.88896048 -0.33661804 1.5250001 -0.3105064 0.2523002 0.60791087 0.72775358
0.89229417 -0.33661804 1.5250001 -0.31696779 0.25359225 0.60386211 0.72761738
0.89837217 -0.33639732 1.524 -0.32327399 0.25641131 0.6018309 0.72969395
0.90170372 -0.33639732 1.524 -0.33253592 0.25728458 0.59603226 0.72940385
0.89850289 -0.33396927 1.5130001 -0.30040532 0.25372162 0.61585122 0.73067826
0.90181035 -0.33396927 1.5130001 -0.30778685 0.2540147 0.61204177 0.73065132
0.90511787 -0.33396927 1.5130001 -0.3097634 0.25660259 0.6119532 0.73231483
0.91022658 -0.33463147 1.516 -0.33077404 0.25972259 0.60074461 0.73332214
0.91414326 -0.33485219 1.5170001 -0.34762922 0.26108041 0.58955395 0.7325182
0.91745949 -0.33485219 1.5170001 -0.35237205 0.26372796 0.58790648 0.73440623
0.9195618 -0.33441076 1.5150001 -0.35122764 0.26653346 0.59062958 0.73705107
0.9180004 -0.33264488 1.5070001 -0.31169644 0.26848793 0.60461557 0.73130047
0.92129481 -0.33264488 1.5070001 -0.31954527 0.27061504 0.59684348 0.72908425
0.92397565 -0.33242413 1.506 -0.32298952 0.27299982 0.59148997 0.72712553
0.91741639 -0.32889241 1.4900001 -0.1995362 0.30262369 0.51537549 0.63008547
0.91820198 -0.32800949 1.4860001 -0.17739937 0.30639309 0.48419103 0.59982347
0.9202103 -0.32756799 1.4840001 -0.17074445 0.30831403 0.46777537 0.58568341
0.92283213 -0.32734728 1.483 -0.17227232 0.31093138 0.45488626 0.57730198
0.92544961 -0.32712653 1.4820001 -0.1762967 0.31308073 0.44666409 0.57324415
0.9286893 -0.32712653 1.4820001 -0.1830458 0.31465596 0.44550341 0.57531506
0.93130022 -0.32690579 1.4810001 -0.18421607 0.31591284 0.43784812 0.57047999
0.93390673 -0.32668507 1.48 -0.18774804 0.31692475 0.43520808 0.57017249
0.93397611 -0.32558143 1.475 -0.17576173 0.31577682 0.42322701 0.55653238
0.9365651 -0.32536069 1.4740001 -0.18088904 0.31729162 0.41840822 0.55539197
0.92193526 -0.31918016 1.4460001 0.37600023 0.5997836 -0.40523928 0.81568098
0.92509627 -0.31918016 1.4460001 0.38571191 0.60546911 -0.40274614 0.823147
0.92889923 -0.31940091 1.447 0.39689958 0.61425018 -0.39569414 0.83150852
0.93206245 -0.31940091 1.447 0.39936393 0.62380552 -0.38792214 0.83612704
0.93522567 -0.31940091 1.447 -0.10857093 0.32617211 0.42305368 0.54511493
0.94552249 -0.32182893 1.4580001 -0.18151104 0.31861556 0.4005385 0.54304075
0.94870973 -0.32182893 1.4580001 -0.19162293 0.32063729 0.39888805 0.54647899
0.95777291 -0.32381555 1.4670001 -0.22345673 0.32422242 0.39187869 0.55553758
1.0125549 -0.32911316 1.4910001 -0.30072284 0.31918126 0.36280996 0.56915897
1.0197572 -0.32933387 1.4920001 -0.31125924 0.31704649 0.35947937 0.57151222
1.047686 -0.33198267 1.5040001 -0.32311907 0.31290394 0.34820616 0.56882542
0.88933384 -0.33721519 1.5430001 -0.34852046 0.25237012 0.57383466 0.71724707
0.89212841 -0.33699661 1.5420001 -0.35018101 0.25233418 0.57280374 0.71721923
0.88562673 -0.33328134 1.5250001 -0.2977902 0.25015095 0.61528116 0.72789103
0.88896048 -0.33328134 1.5250001 -0.30152619 0.249689 0.61308527 0.72741747
0.89229417 -0.33328134 1.5250001 -0.30497783 0.25023389 0.61085659 0.72716868
0.89504063 -0.3330628 1.524 -0.30792576 0.25111353 0.6091184 0.72725618
0.89837217 -0.3330628 1.524 -0.31177518 0.2529031 0.60847646 0.72897691
0.90170372 -0.3330628 1.524 -0.31777954 0.25350577 0.60517001 0.72902662
0.89790899 -0.33044025 1.5120001 -0.2898441 0.25133359 0.62030798 0.72935599
0.9012143 -0.33044025 1.5120001 -0.29676253 0.25188157 0.61639398 0.72900879
0.90511787 -0.33065879 1.5130001 -0.30003098 0.25435472 0.61661154 0.73138547
0.90902579 -0.33087733 1.5140001 -0.31067893 0.256145 0.61164415 0.73228425
0.91293806 -0.3310959 1.5150001 -0.3213326 0.25954139 0.60716116 0.73434395
0.91624993 -0.3310959 1.5150001 -0.33016723 0.26293311 0.6032787 0.73626721
0.91834784 -0.33065879 1.5130001 -0.32548243 0.26583415 0.60299039 0.73498577
0.9180004 -0.32934755 1.5070001 -0.29094395 0.27060938 0.60210276 0.72139138
0.92068344 -0.32912898 1.506 -0.28871346 0.27455908 0.59322107 0.71459734
0.91415918 -0.32563227 1.4900001 -0.17287624 0.3028267 0.4949778 0.60546947
0.91556925 -0.32497665 1.4870001 -0.15987833 0.30372155 0.47751498 0.58807176
0.91758412 -0.32453951 1.485 -0.15818571 0.30660355 0.46040511 0.57532716
0.91214913 -0.32147992 1.4710001 -0.11891893 0.30579022 0.43861124 0.54774922
0.91536486 -0.32147992 1.4710001 -0.1256884 0.30710778 0.43095955 0.54391074
0.92607403 -0.32410246 1.483 -0.16827005 0.31187254 0.44242123 0.56684726
0.9286893 -0.32388389 1.4820001 -0.17185304 0.31336397 0.43728873 0.56475824
0.93192905 -0.32388389 1.4820001 -0.17685437 0.31452262 0.43680936 0.56657249
0.9351688 -0.32388389 1.4820001 -0.18256056 0.31528425 0.43586719 0.5680781
0.93524247 -0.32279116 1.4770001 -0.16649902 0.31430876 0.41616985 0.5474571
0.93720055 -0.32235411 1.475 -0.16509417 0.31435317 0.41121307 0.54329568
0.92193526 -0.31601629 1.4460001 0.38679263 0.59602576 -0.40498602 0.81784409
0.92889923 -0.31623483 1.447 0.4069941 0.61273903 -0.39547104 0.83515906
0.94617099 -0.31885737 1.4590001 -0.16343224 0.3147608 0.39687386 0.53225303
0.954566 -0.32060575 1.4670001 -0.20443356 0.32252216 0.39385626 0.54857665
1.0049442 -0.3286919 1.5040001 -0.35767174 0.31179756 0.39744872 0.61896062
1.0075617 -0.32847336 1.503 -0.34962699 0.31306571 0.38864732 0.60934055
1.0108473 -0.32847336 1.503 -0.34219345 0.31324375 0.38000274 0.59968334
1.0148077 -0.3286919 1.5040001 -0.34225056 0.31315926 0.37380704 0.59576494
1.0180955 -0.3286919 1.5040001 -0.33552587 0.31372148 0.36778662 0.58844352
1.0220624 -0.32891041 1.5050001 -0.33257657 0.31369239 0.36399594 0.58438271
1.0253525 -0.32891041 1.5050001 -0.32571834 0.31403935 0.35798949 0.57694852
1.029326 -0.32912898 1.506 -0.32039905 0.3138023 0.35114124 0.56958544
1.0326182 -0.32912898 1.506 -0.31918034 0.31383947 0.34968555 0.56802398
1.0359104 -0.32912898 1.506 -0.32001868 0.31317711 0.34862173 0.56747597
1.0385125 -0.32891041 1.5050001 -0.32001868 0.31317711 0.34862173 0.56747597
1.0443981 -0.3286919 1.5040001 -0.32269406 0.31315887 0.34840769 0.56884784
1.047686 -0.3286919 1.5040001 -0.32331273 0.31274903 0.34795713 0.56869787
1.0509738 -0.3286919 1.5040001 -0.32358149 0.31274003 0.34828153 0.56904423
0.88035423 -0.33427176 1.5450001 -0.32817227 0.24577026 0.58432055 0.71381408
0.88596076 -0.33383906 1.5430001 -0.32766157 0.24916627 0.58699876 0.71694732
0.89212841 -0.33362269 1.5420001 -0.34093079 0.25034273 0.57869166 0.71679103
0.88562673 -0.32994461 1.5250001 -0.28864327 0.24730659 0.62028611 0.7274822
0.88896048 -0.32994461 1.5250001 -0.29550627 0.24783216 0.61648238 0.7271831
0.89229417 -0.32994461 1.5250001 -0.29896691 0.24842101 0.61427999 0.72693479
0.89562792 -0.32994461 1.5250001 -0.30559281 0.25011715 0.61102438 0.72752756
0.89837217 -0.32972828 1.524 -0.30585006 0.25117576 0.61198205 0.72880417
0.90170372 -0.32972828 1.524 -0.31192788 0.25186187 0.60869557 0.72886467
0.9012143 -0.32713199 1.5120001 -0.28329363 0.25134766 0.61740661 0.72430784
0.90451962 -0.32713199 1.5120001 -0.28971332 0.25481385 0.6161226 0.72696012
0.90842533 -0.32734832 1.5130001 -0.29474926 0.25753793 0.6167134 0.7304371
0.91173285 -0.32734832 1.5130001 -0.30046436 0.25882113 0.61308789 0.73016709
0.91504037 -0.32734832 1.5130001 -0.30418476 0.26279023 0.61093688 0.73132133
0.91713393 -0.32691565 1.511 -0.29809391 0.26706207 0.60594332 0.7261883
0.91860956 -0.32626656 1.508 -0.2788201 0.27364746 0.59504193 0.71182758
0.92129481 -0.32605022 1.5070001 -0.27599207 0.27816337 0.58388883 0.70318753
0.91354567 -0.32215574 1.4890001 -0.15592214 0.30276406 0.47719109 0.58625007
0.91556925 -0.32172307 1.4870001 -0.15160678 0.30458158 0.46199721 0.57375604
0.90893346 -0.31826136 1.4710001 -0.1108522 0.30770797 0.44309333 0.55073053
0.91214913 -0.31826136 1.4710001 -0.11900833 0.30529663 0.43545949 0.54497159
0.91536486 -0.31826136 1.4710001 -0.12042423 0.30522114 0.43273121 0.54306376
0.9286893 -0.32064125 1.4820001 -0.16202554 0.31179202 0.43102345 0.55610049
0.93192905 -0.32064125 1.4820001 -0.16680828 0.31317681 0.4289141 0.55666149
0.9351688 -0.32064125 1.4820001 -0.16916591 0.31358773 0.4250018 0.55459976
0.93777531 -0.32042488 1.4810001 -0.17174047 0.31356755 0.41936687 0.55107892
0.9391067 -0.31977585 1.478 -0.16490495 0.31404495 0.40725312 0.54006755
0.93978739 -0.31891042 1.4740001 -0.1587294 0.31318957 0.40505883 0.53605539
0.92509627 -0.31285241 1.4460001 0.40107104 0.60003662 -0.40315515 0.82670188
0.94876504 -0.3165305 1.4630001 -0.16706093 0.31554407 0.39872089 0.53521562
1.0056667 -0.32886285 1.5200001 -0.4429273 0.28480768 0.44577539 0.6899389
1.0076618 -0.32843012 1.5180001 -0.41961062 0.29420167 0.43055561 0.66933239
1.0069844 -0.32713199 1.5120001 -0.38778472 0.30423206 0.41022667 0.64126444
1.0069487 -0.32605022 1.5070001 -0.35841036 0.3107346 0.39336672 0.61623967
1.0075617 -0.32518479 1.503 -0.33629552 0.31474373 0.38014734 0.59721875
1.0108473 -0.32518479 1.503 -0.33297452 0.31425735 0.37278187 0.59042025
1.0148077 -0.32540113 1.5040001 -0.3352136 0.31389433 0.3681134 0.58856207
1.0180955 -0.32540113 1.5040001 -0.32818526 0.31431007 0.36206004 0.58101964
1.0220624 -0.32561746 1.5050001 -0.32513443 0.3141979 0.35839862 0.57695949
1.0260338 -0.32583383 1.506 -0.32085061 0.31427747 0.35350853 0.57156253
1.0300094 -0.32605022 1.5070001 -0.31918034 0.31383947 0.34968555 0.56802398
1.0333039 -0.32605022 1.5070001 -0.31977913 0.31336856 0.34892756 0.56763452
1.0359104 -0.32583383 1.506 -0.32001868 0.31317711 0.34862173 0.56747597
1.0392026 -0.32583383 1.506 -0.32087693 0.31268299 0.34779763 0.56718236
1.0418025 -0.32561746 1.5050001 -0.32108891 0.31251794 0.34752768 0.56704587
1.0450925 -0.32561746 1.5050001 -0.32300985 0.31290686 0.34797907 0.56862599
1.0483825 -0.32561746 1.5050001 -0.32322377 0.31275082 0.34768805 0.56848365
1.0509738 -0.32540113 1.5040001 -0.32358149 0.31274003 0.34828153 0.56904423
0.8831597 -0.33067712 1.544 -0.31807667 0.24707845 0.59282935 0.7167058
0.88875753 -0.33024877 1.5420001 -0.31882024 0.24644241 0.59185851 0.71601444
0.89154983 -0.33003458 1.5410001 -0.32243052 0.24590318 0.58974612 0.71570265
0.89433783 -0.32982042 1.5400001 -0.32542178 0.24669768 0.587955 0.71585625
0.88896048 -0.32660788 1.5250001 -0.28644162 0.24493007 0.62139934 0.72675765
0.89229417 -0.32660788 1.5250001 -0.28987816 0.24557239 0.61925745 0.72650874
0.89562792 -0.32660788 1.5250001 -0.29650459 0.24738717 0.61612082 0.72713155
0.89837217 -0.32639372 1.524 -0.29989928 0.24937209 0.61541975 0.72860658
0.89460367 -0.32382369 1.5120001 -0.25807875 0.25281137 0.61289424 0.71144754
0.89790899 -0.32382369 1.5120001 -0.2608321 0.25494117 0.61264598 0.71299613
0.9012143 -0.32382369 1.5120001 -0.2664856 0.25541908 0.60933727 0.71242219
0.90451962 -0.32382369 1.5120001 -0.26974586 0.25830239 0.60929292 0.71464735
0.90842533 -0.32403785 1.5130001 -0.27709353 0.2598694 0.61255634 0.72078997
0.91173285 -0.32403785 1.5130001 -0.28455827 0.26257291 0.60665387 0.71968526
0.91443557 -0.32382369 1.5120001 -0.28016603 0.26743114 0.60294443 0.71662712
0.91713393 -0.32360956 1.511 -0.28068757 0.27207774 0.59656763 0.71323538
0.91921872 -0.32318118 1.5090001 -0.26999038 0.27764463 0.58465677 0.70128804
0.92190611 -0.32296702 1.508 -0.26728562 0.27929771 0.58089566 0.69777405
0.92213506 -0.3218962 1.503 -0.2328718 0.29127622 0.5494349 0.66404051
0.91680068 -0.31889778 1.4890001 -0.14564544 0.30381346 0.45687693 0.56767225
0.9151125 -0.31718445 1.4810001 -0.1303468 0.3034156 0.43247107 0.54413468
0.91214913 -0.31504279 1.4710001 -0.11304225 0.30419379 0.42656457 0.53597552
0.91536486 -0.31504279 1.4710001 -0.11484572 0.30419722 0.42412996 0.53442651
0.92607403 -0.3176128 1.483 -0.14559843 0.30777508 0.4280563 0.54695213
0.93255788 -0.3176128 1.483 -0.15436943 0.31013143 0.42290306 0.54667944
1.0023439 -0.32553706 1.5200001 -0.43055409 0.28955191 0.44172803 0.68142557
1.0056667 -0.32553706 1.5200001 -0.42167574 0.29339123 0.43068346 0.67035592
1.0089895 -0.32553706 1.5200001 -0.41396618 0.29600906 0.42452198 0.66272795
1.0123123 -0.32553706 1.5200001 -0.40779594 0.29827458 0.41290826 0.6525017
1.0156351 -0.32553706 1.5200001 -0.39995527 0.30047923 0.40666282 0.64469111
1.0189579 -0.32553706 1.5200001 -0.39043149 0.30297762 0.3984161 0.63479728
1.0209357 -0.32510871 1.5180001 -0.37443531 0.30652982 0.38714337 0.61971146
1.0229045 -0.32468039 1.516 -0.35980341 0.30908781 0.37670243 0.60572147
1.0255417 -0.32446623 1.5150001 -0.34866107 0.3106007 0.36848125 0.59482414
1.0281744 -0.32425204 1.5140001 -0.33753306 0.31172806 0.35999107 0.58369213
1.0308028 -0.32403785 1.5130001 -0.32842192 0.31220293 0.35288706 0.57433516
1.0327433 -0.32360956 1.511 -0.32113808 0.31251532 0.34743208 0.56701368
1.0339894 -0.32296702 1.508 -0.32030314 0.31316561 0.34851405 0.56756395
1.0365982 -0.32275286 1.5070001 -0.32089722 0.31268179 0.34774861 0.56716311
1.0392026 -0.32253867 1.506 -0.32087693 0.31268299 0.34779763 0.56718236
1.0424948 -0.32253867 1.506 -0.32142013 0.31227064 0.34707987 0.56682301
1.0450925 -0.32232448 1.5050001 -0.32302818 0.31221151 0.34759322 0.56801784
1.0483825 -0.32232448 1.5050001 -0.32322377 0.31275082 0.34768805 0.56848365
1.0516726 -0.32232448 1.5050001 -0.32352316 0.31252629 0.34731385 0.56830174
0.89154983 -0.32666284 1.5410001 -0.31326023 0.24339022 0.59504879 0.71516001
0.89433783 -0.32645088 1.5400001 -0.31850058 0.24408935 0.59281224 0.71585518
0.89712143 -0.32623893 1.539 -0.32256171 0.24495222 0.59087443 0.71636599
0.89229417 -0.32327116 1.5250001 -0.28687027 0.24458405 0.62088197 0.72636795
0.89562792 -0.32327116 1.5250001 -0.29053825 0.2454724 0.61942583 0.72688204
0.89837217 -0.3230592 1.524 -0.29091167 0.24654356 0.62041306 0.72823465
0.89460367 -0.32051542 1.5120001 -0.24228469 0.25883982 0.59941697 0.69641984
0.89790899 -0.32051542 1.5120001 -0.24129064 0.26027513 0.59990811 0.69703227
0.9012143 -0.32051542 1.5120001 -0.24941593 0.26033047 0.59807831 0.6983394
0.90451962 -0.32051542 1.5120001 -0.25054121 0.26349986 0.59736001 0.69931543
0.90782493 -0.32051542 1.5120001 -0.25254053 0.26713875 0.59669483 0.7008456
0.91113025 -0.32051542 1.5120001 -0.25740513 0.27167416 0.59585607 0.70363963
0.91443557 -0.32051542 1.5120001 -0.25769341 0.2725291 0.59124702 0.70017934
0.91652691 -0.32009146 1.5100001 -0.2483871 0.2768544 0.58371967 0.69215107
0.91921872 -0.31987947 1.5090001 -0.24839073 0.28161746 0.57325506 0.68529391
0.92251748 -0.31987947 1.5090001 -0.25560573 0.28354287 0.56733763 0.68381494
0.92520273 -0.31966749 1.508 -0.25285172 0.28641257 0.55651462 0.67503679
0.92480499 -0.31839561 1.5020001 -0.2047717 0.29856059 0.51489973 0.62943751
0.96022648 -0.32369515 1.5270001 -0.49125028 0.25021687 0.51886475 0.7570706
0.96482664 -0.32411909 1.529 -0.49574429 0.24845366 0.51385123 0.75599915
1.0075654 -0.324967 1.5330001 -0.478477 0.26896799 0.45527816 0.71313548
1.0102571 -0.32475504 1.5320001 -0.46957842 0.27375031 0.44703668 0.7037648
1.0136062 -0.32475504 1.5320001 -0.45535427 0.28065836 0.43668765 0.69051629
1.0169553 -0.32475504 1.5320001 -0.44422963 0.28547788 0.42894232 0.68031543
1.0209702 -0.324967 1.5330001 -0.43401241 0.28918463 0.42070022 0.67006207
1.0243214 -0.324967 1.5330001 -0.42446536 0.29249156 0.41328809 0.66070354
1.0189579 -0.32221127 1.5200001 -0.3799189 0.30543453 0.39060467 0.62466037
1.0216081 -0.32199931 1.5190001 -0.36576197 0.30805123 0.37960058 0.61055219
1.0242541 -0.3217873 1.5180001 -0.35135022 0.30995411 0.36862642 0.59615767
1.0262187 -0.32136333 1.516 -0.33782405 0.31155872 0.35964149 0.58355457
1.0288535 -0.32115138 1.5150001 -0.33069798 0.31184548 0.35369539 0.57594204
1.0314841 -0.32093939 1.5140001 -0.32510519 0.31213289 0.34968233 0.57043672
1.0341103 -0.32072738 1.5130001 -0.32167584 0.31211954 0.3467533 0.56668496
1.0360465 -0.32030344 1.511 -0.32144901 0.31226921 0.34703329 0.56681007
1.0379739 -0.31987947 1.5090001 -0.32143533 0.31227005 0.34707752 0.5668298
1.0405827 -0.31966749 1.508 -0.32143533 0.31227005 0.34707752 0.5668298
1.0431869 -0.31945553 1.5070001 -0.32162434 0.31212217 0.34683558 0.56670749
1.045787 -0.31924352 1.506 -0.32323748 0.31206244 0.34730929 0.56788129
1.0490792 -0.31924352 1.506 -0.32352316 0.31252629 0.34731385 0.56830174
1.0516726 -0.31903154 1.5050001 -0.32352316 0.31252629 0.34731385 0.56830174
0.88818115 -0.32329112 1.5410001 -0.29978257 0.24148999 0.60280979 0.71523887
0.89433783 -0.32308134 1.5400001 -0.3124786 0.2423621 0.59632528 0.71553206
0.89712143 -0.32287157 1.539 -0.31767952 0.24331315 0.5942778 0.71644098
0.89229417 -0.31993443 1.5250001 -0.27762163 0.24209037 0.62468898 0.7252019
0.89562792 -0.31993443 1.5250001 -0.28448087 0.24374551 0.62222552 0.72629601
0.89778268 -0.31951487 1.5230001 -0.27960336 0.24516581 0.62356436 0.72602814
0.89815372 -0.31846589 1.5180001 -0.2573418 0.2516039 0.61072958 0.70888638
0.89850289 -0.31741691 1.5130001 -0.23632991 0.2625736 0.59093857 0.68848026
0.90181035 -0.31741691 1.5130001 -0.23789886 0.26417544 0.58830315 0.68737555
0.91921872 -0.31657773 1.5090001 -0.22905309 0.28620642 0.55777037 0.66744828
0.92251748 -0.31657773 1.5090001 -0.23092511 0.28802574 0.55076838 0.66304678
0.92520273 -0.31636795 1.508 -0.22590491 0.29180247 0.5349986 0.64992708
0.92849928 -0.31636795 1.508 -0.23080961 0.29388028 0.53078812 0.64913386
0.98915279 -0.33000451 1.5730001 -0.55000162 0.22009371 0.4699733 0.75618643
0.99603009 -0.33000451 1.5730001 -0.55920851 0.21867812 0.46245342 0.75789011
0.99946874 -0.33000451 1.5730001 -0.55808103 0.22117683 0.46222371 0.757644
1.0029074 -0.33000451 1.5730001 -0.55644095 0.22435938 0.46395767 0.75843281
1.0170882 -0.3312633 1.5790001 -0.55392206 0.22695945 0.45991725 0.75489342
1.0152262 -0.32622826 1.5550001 -0.51894391 0.24753515 0.46348062 0.73850572
1.0140401 -0.32475969 1.5480001 -0.50440484 0.25563264 0.45985213 0.7288596
1.0147951 -0.32392052 1.544 -0.48867133 0.26468191 0.45080528 0.71559876
1.0148731 -0.32287157 1.539 -0.47203124 0.27286553 0.44351348 0.70283234
1.0202224 -0.32350093 1.5420001 -0.46694025 0.2757574 0.43695769 0.69642466
1.0229294 -0.32329112 1.5410001 -0.45446503 0.28127867 0.4294849 0.6856482
1.0262982 -0.32329112 1.5410001 -0.43588412 0.28870428 0.41611135 0.66820192
1.0249896 -0.32182258 1.534 -0.41494328 0.29560345 0.40668398 0.65188283
1.0276726 -0.32161278 1.5330001 -0.3998161 0.29979104 0.39541367 0.63724369
1.0222807 -0.31888548 1.5200001 -0.35914224 0.30893809 0.37339693 0.60320073
1.0249288 -0.3186757 1.5190001 -0.34800917 0.31037986 0.36515385 0.59226966
1.0268955 -0.31825608 1.5170001 -0.33646792 0.31145346 0.3575168 0.58140534
1.0288535 -0.31783652 1.5150001 -0.32515198 0.31213051 0.34961078 0.57041824
1.0314841 -0.31762671 1.5140001 -0.32148683 0.31226748 0.34699523 0.56680727
1.0341103 -0.31741691 1.5130001 -0.32167584 0.31211954 0.3467533 0.56668496
1.0367322 -0.31720713 1.5120001 -0.32167584 0.31211954 0.3467533 0.56668496
1.0393497 -0.31699735 1.511 -0.32165444 0.31212068 0.34679088 0.56669641
1.0412726 -0.31657773 1.5090001 -0.32163802 0.31212127 0.34679136 0.5666877
1.0438792 -0.31636795 1.508 -0.32162434 0.31212217 0.34683558 0.56670749
1.0464814 -0.31615821 1.5070001 -0.32324591 0.31206208 0.34730545 0.56788355
1.0490792 -0.31594837 1.506 -0.32354423 0.31182688 0.34692201 0.56768984
1.0523713 -0.31594837 1.506 -0.32352316 0.31252629 0.34731385 0.56830174
0.88423824 -0.3197118 1.5400001 -0.28740054 0.23965371 0.61057925 0.71612853
0.88760477 -0.3197118 1.5400001 -0.29362595 0.23956941 0.606107 0.71482539
0.8909713 -0.3197118 1.5400001 -0.29536626 0.23928267 0.60544169 0.71488249
0.89896166 -0.3165977 1.5250001 -0.27634051 0.24526894 0.62218058 0.72362256
0.90111202 -0.31618252 1.5230001 -0.26909828 0.25026673 0.61320567 0.71489054
0.94820219 -0.3197118 1.5400001 -0.43902481 0.25850821 0.53098798 0.73587871
0.98227543 -0.32656276 1.5730001 -0.54586411 0.21943177 0.47714269 0.75748467
0.98571408 -0.32656276 1.5730001 -0.54767257 0.21963833 0.47283423 0.75614709
0.98915279 -0.32656276 1.5730001 -0.54907966 0.22089069 0.46911317 0.7552141
0.99259144 -0.32656276 1.5730001 -0.55101359 0.22232597 0.46692494 0.75568759
0.99603009 -0.32656276 1.5730001 -0.55500323 0.22159025 0.46106419 0.75479198
0.99946874 -0.32656276 1.5730001 -0.55599749 0.222734 0.46113494 0.75590283
1.003545 -0.32677037 1.5740001 -0.55468529 0.22567387 0.46262056 0.7567181
1.0076256 -0.326978 1.575 -0.55231929 0.22729807 0.46143815 0.75474906
1.0123526 -0.32739317 1.577 -0.55264395 0.22793224 0.46092039 0.75486159
1.0276495 -0.33009204 1.59 -0.54880399 0.22914115 0.46076867 0.75232923
1.0170325 -0.32448673 1.5630001 -0.52543074 0.24426612 0.46207249 0.741117
1.0158792 -0.32303348 1.5560001 -0.51068908 0.25291848 0.45721084 0.73062497
1.0213677 -0.32261828 1.554 -0.49336785 0.26290852 0.4470281 0.71579808
1.0208081 -0.32137263 1.5480001 -0.4756757 0.27150559 0.43990782 0.70249665
1.0235305 -0.32116506 1.5470001 -0.46367598 0.27717739 0.43247831 0.69199723
1.0262486 -0.32095742 1.5460001 -0.44619232 0.28467387 0.4209725 0.67627263
1.0282962 -0.32054222 1.544 -0.43010217 0.2906034 0.41084746 0.66199231
1.0310032 -0.32033464 1.5430001 -0.41707709 0.29485571 0.40219158 0.65011638
1.0283431 -0.31846616 1.534 -0.38910216 0.30242077 0.38785058 0.62712592
1.0310239 -0.31825855 1.5330001 -0.37470156 0.30538049 0.37777016 0.61348903
1.0256035 -0.31555969 1.5200001 -0.33902207 0.3111341 0.35767978 0.5828166
1.0275725 -0.31514448 1.5180001 -0.33140105 0.31167161 0.35270628 0.57564539
1.0302118 -0.31493688 1.5170001 -0.32400054 0.31203115 0.34737733 0.56834042
1.0321654 -0.3145217 1.5150001 -0.32171342 0.31211752 0.34667778 0.56665891
1.0347939 -0.31431407 1.5140001 -0.32171342 0.31211752 0.34667778 0.56665891
1.0374178 -0.31410643 1.5130001 -0.32171342 0.31211752 0.34667778 0.56665891
1.0400375 -0.31389886 1.5120001 -0.32197416 0.3118844 0.34636986 0.56649035
1.0426527 -0.31369126 1.511 -0.32197416 0.3118844 0.34636986 0.56649035
1.0466481 -0.31389886 1.5120001 -0.32406473 0.31168878 0.3462542 0.56750315
1.0541199 -0.31514448 1.5180001 -0.32610449 0.31069374 0.34366578 0.56655174
1.0574384 -0.31514448 1.5180001 -0.32635403 0.31049091 0.34333786 0.56638539
1.0614555 -0.31535211 1.5190001 -0.32638076 0.31118649 0.34360647 0.5669452
0.88029975 -0.31613687 1.539 -0.28238013 0.23643579 0.61676055 0.71835506
0.88760477 -0.31634226 1.5400001 -0.28425604 0.23653401 0.61092114 0.71412498
0.8909713 -0.31634226 1.5400001 -0.28992218 0.23665868 0.60773742 0.71372753
0.89433783 -0.31634226 1.5400001 -0.29600447 0.23763986 0.60489333 0.71413392
0.88954335 -0.31346643 1.526 -0.25218511 0.24889283 0.611848 0.70703816
0.97020227 -0.32599688 1.5870001 -0.55522227 0.21415269 0.45554155 0.74943393
0.97367156 -0.32599688 1.5870001 -0.55632168 0.21387808 0.45377547 0.74909937
0.99130225 -0.33072144 1.6100001 -0.56960273 0.20093907 0.46476763 0.76212382
0.99420393 -0.33051601 1.6090001 -0.57045531 0.20050444 0.4644652 0.76246262
1.0012386 -0.33051601 1.6090001 -0.57206893 0.19930841 0.46499568 0.7636804
0.99289125 -0.3266131 1.59 -0.56027645 0.21566433 0.45465779 0.75308335
0.98634076 -0.32332644 1.5740001 -0.54765981 0.22061364 0.4697715 0.75451106
0.98915279 -0.32312101 1.5730001 -0.54666662 0.22243862 0.46854562 0.75356376
0.99259144 -0.32312101 1.5730001 -0.54936385 0.22384699 0.46501055 0.75375253
0.99603009 -0.32312101 1.5730001 -0.55100888 0.22447205 0.45911416 0.75152129
1.0001042 -0.32332644 1.5740001 -0.55393493 0.22427517 0.45999169 0.75414562
1.003545 -0.32332644 1.5740001 -0.5513857 0.22808777 0.46091533 0.75398481
1.0076256 -0.32353187 1.575 -0.54807383 0.23035763 0.45922357 0.75122291
1.0219817 -0.32702395 1.5920001 -0.55351591 0.22294119 0.46116155 0.75415689
1.0282959 -0.32681856 1.5910001 -0.5433293 0.23272249 0.45890266 0.74830347
1.0304768 -0.32640767 1.5890001 -0.5379824 0.236673 0.45496827 0.74325991
1.0183338 -0.32147768 1.5650001 -0.52008981 0.24884433 0.45408639 0.73390144
1.0158792 -0.31962892 1.5560001 -0.5005421 0.2589637 0.45100006 0.72180718
1.0186255 -0.31942353 1.5550001 -0.49088874 0.26427287 0.4454537 0.71361119
1.0220249 -0.31942353 1.5550001 -0.4831312 0.26841423 0.43980321 0.70632064
1.0241053 -0.31901267 1.5530001 -0.47006959 0.27471957 0.43219206 0.69514477
1.0255154 -0.31839642 1.5500001 -0.45386356 0.28180742 0.42321774 0.68155766
1.0275761 -0.31798559 1.5480001 -0.4342162 0.28929043 0.41128775 0.66437209
1.0302942 -0.3177802 1.5470001 -0.42121366 0.29363155 0.40292802 0.65268016
1.0330079 -0.31757477 1.5460001 -0.40945673 0.29698595 0.39517877 0.64188921
1.0343764 -0.31695852 1.5430001 -0.39304793 0.30119693 0.38534921 0.62745541
1.0316964 -0.31510976 1.534 -0.36730868 0.30666825 0.37222925 0.60623074
1.0343751 -0.31490433 1.5330001 -0.35437629 0.308312 0.36258605 0.59338641
1.0377263 -0.31490433 1.5330001 -0.34492153 0.30931109 0.35585859 0.58419138
1.0403985 -0.31469893 1.5320001 -0.33551455 0.31003511 0.34934801 0.57509637
1.0437474 -0.31469893 1.5320001 -0.32873467 0.31000352 0.34335437 0.56750411
1.0409452 -0.31285018 1.5230001 -0.32422146 0.31099534 0.34309357 0.56528831
1.0429032 -0.31243932 1.521 -0.32411769 0.31100273 0.34336376 0.5653969
1.0462282 -0.31243932 1.521 -0.32603031 0.31069475 0.34345755 0.56638336
1.0495532 -0.31243932 1.521 -0.32608148 0.3106913 0.34334683 0.56634378
1.0577238 -0.31387725 1.5280001 -0.32772666 0.30971807 0.34138077 0.56557131
1.0673138 -0.31572598 1.5370001 -0.32848299 0.30914932 0.33909345 0.56432146
1.0706737 -0.31572598 1.5370001 -0.3290391 0.30869099 0.33834839 0.56394726
1.0740337 -0.31572598 1.5370001 -0.32903239 0.30938202 0.33873484 0.56455362
0.8763656 -0.31256625 1.5380001 -0.2845822 0.23687167 0.6171906 0.71973568
0.87972772 -0.31256625 1.5380001 -0.2821992 0.23611982 0.61726809 0.71861595
0.88366407 -0.3127695 1.539 -0.28238204 0.23714043 0.61560404 0.71759564
0.88760477 -0.31297272 1.5400001 -0.28120062 0.23548724 0.61248469 0.71390861
0.8909713 -0.31297272 1.5400001 -0.28371635 0.2346089 0.61087322 0.71323377
0.89433783 -0.31297272 1.5400001 -0.28672981 0.23462041 0.60968983 0.71343005
0.9786737 -0.33126333 1.6300001 -0.5815081 0.16516705 0.42335749 0.73801315
0.98147291 -0.32862133 1.6170001 -0.57143676 0.18801317 0.44912162 0.75073242
0.98378944 -0.32821491 1.6150001 -0.57027781 0.19235027 0.45467466 0.75428408
0.98487455 -0.327402 1.6110001 -0.56559861 0.20106959 0.46318194 0.75820071
0.98778272 -0.32719874 1.6100001 -0.56665647 0.2025757 0.46535134 0.76071566
0.99130225 -0.32719874 1.6100001 -0.56852287 0.20156769 0.46490481 0.761567
0.99420393 -0.32699549 1.6090001 -0.57045531 0.20050444 0.4644652 0.76246262
0.99772125 -0.32699549 1.6090001 -0.57116091 0.20023255 0.46394378 0.76260191
1.0012386 -0.32699549 1.6090001 -0.57034254 0.20091341 0.46344137 0.76186264
1.0041316 -0.3267923 1.608 -0.57002819 0.20256422 0.46627754 0.76379263
0.9963671 -0.32313415 1.59 -0.56372535 0.21364495 0.454438 0.75494659
0.99984288 -0.32313415 1.59 -0.56334287 0.21477211 0.45414743 0.75480604
1.0039498 -0.32333741 1.5910001 -0.56143373 0.21597975 0.45288965 0.75297022
1.0080609 -0.32354063 1.5920001 -0.56000322 0.2154887 0.45758596 0.75460184
1.0115411 -0.32354063 1.5920001 -0.55975425 0.2164299 0.45770133 0.75475639
1.015659 -0.32374385 1.5930001 -0.55736345 0.21845479 0.45908552 0.75441104
1.0185015 -0.32354063 1.5920001 -0.55312121 0.22234318 0.45751187 0.751463
1.0219817 -0.32354063 1.5920001 -0.54825765 0.22668377 0.45859259 0.74985278
1.0254619 -0.32354063 1.5920001 -0.54282534 0.23249753 0.45754907 0.74703789
1.0289421 -0.32354063 1.5920001 -0.53776276 0.23638204 0.455809 0.74352348
1.0317738 -0.32333741 1.5910001 -0.53162867 0.24055126 0.45208919 0.73815894
1.0189846 -0.31825668 1.5660001 -0.51103806 0.25471637 0.44737816 0.72538787
1.0158792 -0.31622437 1.5560001 -0.48963845 0.26502341 0.44432601 0.71232635
1.0186255 -0.31602117 1.5550001 -0.4813959 0.26925886 0.43956 0.70530516
1.0220249 -0.31602117 1.5550001 -0.47018182 0.27475432 0.43178385 0.69498068
1.0247648 -0.31581792 1.554 -0.45609125 0.28097811 0.42317289 0.68267357
1.02824 -0.31480175 1.549 -0.42184144 0.29347238 0.40183657 0.65234107
1.0316261 -0.31480175 1.549 -0.41167423 0.29653007 0.39494926 0.64295465
1.0343442 -0.31459856 1.5480001 -0.4012785 0.29916495 0.38793558 0.63325989
1.0397393 -0.31520826 1.5510001 -0.39460996 0.30073962 0.38223976 0.62631345
1.0451475 -0.31581792 1.554 -0.38644618 0.30203098 0.37419099 0.6169135
1.0539426 -0.31744376 1.562 -0.37631056 0.30350721 0.36246315 0.60423988
1.0627725 -0.31906959 1.5700001 -0.37160137 0.30374908 0.3542465 0.59652466
1.0655255 -0.31886634 1.5690001 -0.35686833 0.30551803 0.34520817 0.58297938
1.0689554 -0.31886634 1.5690001 -0.3416459 0.3065092 0.33477733 0.56810713
1.0717019 -0.31866312 1.5680001 -0.33432665 0.30666223 0.32977277 0.56086195
1.066216 -0.31602117 1.5550001 -0.32991314 0.30797312 0.33451018 0.56177145
1.0703031 -0.31622437 1.5560001 -0.32984227 0.30797216 0.33430865 0.56160939
1.0737046 -0.31622437 1.5560001 -0.32996643 0.30771554 0.33338934 0.5609948
1.0777984 -0.31642759 1.557 -0.33038265 0.30744177 0.33158174 0.56001747
1.0916182 -0.31947604 1.572 -0.33967316 0.3061164 0.31927922 0.55769551
1.0957513 -0.31967926 1.5730001 -0.3490546 0.30543977 0.31877378 0.56280482
1.0998888 -0.31988251 1.5740001 -0.35388675 0.30489457 0.31597522 0.56394756
0.93534034 -0.32749581 1.6290001 -0.54826802 0.1473113 0.3700794 0.67768514
0.93947774 -0.32769686 1.6300001 -0.55954421 0.14578548 0.37553167 0.6894688
0.94304103 -0.32769686 1.6300001 -0.56588882 0.14589232 0.38193965 0.69813508
0.94718504 -0.32789791 1.631 -0.57654232 0.1410377 0.38066033 0.7051205
0.98415661 -0.33815101 1.682 -0.60860693 0.11276817 0.32574964 0.69945115
0.97511047 -0.32769686 1.6300001 -0.58206928 0.15896562 0.41449785 0.73204041
0.9786737 -0.32769686 1.6300001 -0.5815081 0.16516705 0.42335749 0.73801315
0.98223698 -0.32769686 1.6300001 -0.58111513 0.17064947 0.43081087 0.7432456
0.97914761 -0.32548544 1.6190001 -0.57142019 0.18369703 0.44392151 0.74654669
0.98147291 -0.32508332 1.6170001 -0.57143676 0.18801317 0.44912162 0.75073242
0.98318028 -0.32448021 1.6140001 -0.56924284 0.19290158 0.45492023 0.75379097
0.98487455 -0.3238771 1.6110001 -0.56559861 0.20106959 0.46318194 0.75820071
0.98778272 -0.32367605 1.6100001 -0.56665647 0.2025757 0.46535134 0.76071566
0.99130225 -0.32367605 1.6100001 -0.56852287 0.20156769 0.46490481 0.761567
0.99420393 -0.32347497 1.6090001 -0.57007539 0.20096122 0.46380544 0.76189691
0.99772125 -0.32347497 1.6090001 -0.57034254 0.20091341 0.46344137 0.76186264
1.0006163 -0.32327396 1.608 -0.56967402 0.20168148 0.46237439 0.76091653
1.0035071 -0.32307294 1.6070001 -0.56800276 0.20453857 0.46475473 0.76187932
1.0051402 -0.3224698 1.6040001 -0.5648964 0.20916942 0.46405625 0.76039988
1.0073889 -0.32206771 1.6020001 -0.56375134 0.20998496 0.46369344 0.75955307
1.01026 -0.32186666 1.6010001 -0.56267363 0.21194889 0.46330148 0.75906008
1.0124934 -0.3214646 1.5990001 -0.56042093 0.21387471 0.46145719 0.75680697
1.0121765 -0.32025832 1.5930001 -0.55578947 0.21914251 0.45640838 0.75182045
1.015659 -0.32025832 1.5930001 -0.55302262 0.22150008 0.45730251 0.75101393
1.0191413 -0.32025832 1.5930001 -0.54831409 0.22532269 0.45664924 0.7482962
1.0226237 -0.32025832 1.5930001 -0.54253292 0.2305842 0.45525837 0.74482965
1.0261061 -0.32025832 1.5930001 -0.53758204 0.23600778 0.45433253 0.74236929
1.0289421 -0.3200573 1.5920001 -0.53080243 0.24116096 0.45134813 0.73730928
1.0324223 -0.3200573 1.5920001 -0.52385509 0.24567275 0.44640106 0.73078942
1.0352519 -0.31985629 1.5910001 -0.51553231 0.25072473 0.441706 0.72369927
1.0230608 -0.31503129 1.567 -0.49298143 0.26519513 0.43389615 0.70825493
1.0186255 -0.31261879 1.5550001 -0.46551794 0.27690393 0.42957598 0.69131631
1.0220249 -0.31261879 1.5550001 -0.45132115 0.28301337 0.41975376 0.67821866
1.0295676 -0.31181464 1.5510001 -0.41370162 0.29588968 0.39539674 0.64423466
1.0322921 -0.31161359 1.5500001 -0.40319997 0.29872188 0.38869277 0.63473386
1.0363487 -0.31181464 1.5510001 -0.39456159 0.30074704 0.38225788 0.62629765
1.0471133 -0.31402606 1.562 -0.39274248 0.30063891 0.3735317 0.61980349
1.0565809 -0.31583545 1.5710001 -0.38435492 0.3018907 0.36259601 0.60855776
1.0735099 -0.31985629 1.5910001 -0.36922252 0.30328175 0.34298986 0.58817273
1.0844342 -0.32206771 1.6020001 -0.37518072 0.29843503 0.31668842 0.57455689
1.0872571 -0.32186666 1.6010001 -0.36801273 0.29835841 0.30816633 0.56517041
1.0900757 -0.32166564 1.6 -0.36185372 0.29847109 0.30155918 0.55763882
1.0928899 -0.3214646 1.5990001 -0.36599925 0.29780406 0.29936391 0.55880362
1.0963854 -0.3214646 1.5990001 -0.37235779 0.29674265 0.29568601 0.56047904
1.0998809 -0.3214646 1.5990001 -0.38371643 0.29462525 0.2916964 0.56491512
1.1040665 -0.32166564 1.6 -0.3914701 0.29307801 0.28835151 0.56770605
1.1082563 -0.32186666 1.6010001 -0.39017552 0.29219353 0.28525189 0.56478548
1.1159227 -0.32307294 1.6070001 -0.37642837 0.29225364 0.28138271 0.55343181
1.1270983 -0.32528436 1.618 -0.33723038 0.2979379 0.27420706 0.52695429
1.1306354 -0.32528436 1.618 -0.32379156 0.30191568 0.27363378 0.52045125
0.81324989 -0.31796598 1.5990001 -0.5871762 -0.014814675 0.17883161 0.61398381
0.96577191 -0.33447075 1.682 -0.61070275 0.098301709 0.30122727 0.68801087
0.96944886 -0.33447075 1.682 -0.61022449 0.10187903 0.30735296 0.69081044
0.97312576 -0.33447075 1.682 -0.6089772 0.11256921 0.32570747 0.69972163
0.97680271 -0.33447075 1.682 -0.6091224 0.11243924 0.32491159 0.69945711
0.98047966 -0.33447075 1.682 -0.60874474 0.11274683 0.32581729 0.69959909
0.98415661 -0.33447075 1.682 -0.60854614 0.11272487 0.32601982 0.69951713
0.9921 -0.33466962 1.6830001 -0.60898185 0.12017113 0.33978355 0.70763892
0.97986102 -0.32810745 1.6500001 -0.59727383 0.13373524 0.38248405 0.72174454
0.97154719 -0.32413039 1.6300001 -0.58005476 0.16003904 0.41494846 0.73092973
0.97511047 -0.32413039 1.6300001 -0.5799191 0.16009557 0.41502464 0.7308777
0.97327 -0.3223407 1.6210001 -0.57499421 0.17389011 0.43273547 0.74034864
0.97560841 -0.32194304 1.6190001 -0.57270789 0.17998889 0.44001776 0.7443158
0.9785428 -0.32174417 1.618 -0.57155585 0.18364049 0.44384533 0.74659133
0.98147291 -0.3215453 1.6170001 -0.57143676 0.18801317 0.44912162 0.75073242
0.98196197 -0.32055104 1.6120001 -0.56555772 0.19751129 0.45935875 0.75490177
0.98487455 -0.3203522 1.6110001 -0.56567466 0.20085102 0.46369874 0.75851536
0.98778272 -0.32015333 1.6100001 -0.56632948 0.20284434 0.46514869 0.76041973
0.99130225 -0.32015333 1.6100001 -0.56760824 0.20232274 0.46433926 0.76073945
0.99420393 -0.31995445 1.6090001 -0.56923461 0.20165817 0.46328557 0.7611357
0.99772125 -0.31995445 1.6090001 -0.56939733 0.201694 0.46286601 0.76101166
1.0006163 -0.31975564 1.608 -0.56763643 0.20328407 0.46133524 0.75918752
1.0035071 -0.3195568 1.6070001 -0.56466502 0.20741992 0.46218878 0.75860929
1.0057667 -0.31915906 1.605 -0.56246972 0.21086091 0.46338561 0.75865716
1.0080178 -0.31876138 1.603 -0.560368 0.21264327 0.46171939 0.75658065
1.01026 -0.31836364 1.6010001 -0.55910158 0.21467926 0.46140292 0.75602543
1.0131266 -0.3181648 1.6 -0.55605948 0.21704103 0.45884207 0.75289112
1.0147182 -0.31756824 1.5970001 -0.55322093 0.21950449 0.45671627 0.7502169
1.0162965 -0.31697169 1.5940001 -0.54760051 0.22446711 0.45407552 0.74594665
1.0197811 -0.31697169 1.5940001 -0.54257953 0.22920702 0.45327145 0.74322504
1.0232656 -0.31697169 1.5940001 -0.53687805 0.23445952 0.45206946 0.73998386
1.0261061 -0.31677282 1.5930001 -0.52962601 0.24116898 0.45028365 0.7358135
1.0295885 -0.31677282 1.5930001 -0.5227837 0.24638546 0.44631177 0.73020732
1.0324223 -0.31657398 1.5920001 -0.51464969 0.25131369 0.44089967 0.72278309
1.0359025 -0.31657398 1.5920001 -0.50447899 0.25718367 0.43474317 0.71389365
1.0387299 -0.31637514 1.5910001 -0.49336702 0.26310802 0.4273904 0.70377511
1.0415528 -0.31617627 1.59 -0.48304051 0.26822233 0.42044282 0.69429356
1.0787752 -0.31896022 1.6040001 -0.3805359 0.29861513 0.33030561 0.58573061
1.091728 -0.32174417 1.618 -0.39878157 0.28991258 0.28811732 0.57104087
1.0959419 -0.32194304 1.6190001 -0.39393651 0.28953052 0.28324857 0.56501651
1.0994811 -0.32194304 1.6190001 -0.39414871 0.28875455 0.2821188 0.56420159
1.104383 -0.3223407 1.6210001 -0.39133349 0.28716779 0.27864066 0.55968553
1.109977 -0.32293728 1.6240001 -0.38163683 0.28693986 0.27503097 0.55102015
1.1148984 -0.32333499 1.626 -0.36832303 0.28976387 0.27557996 0.54366279
1.1191409 -0.32353386 1.6270001 -0.35695192 0.29141986 0.27615824 0.53721839
1.1233876 -0.3237327 1.628 -0.34448025 0.29277244 0.27562883 0.52948427
1.1269464 -0.3237327 1.628 -0.32769093 0.29467869 0.27388781 0.51887512
1.1318942 -0.32413039 1.6300001 -0.30854046 0.30064154 0.27313939 0.51008594
1.1424235 -0.32611892 1.6400001 -0.29893777 0.31182981 0.27060872 0.50973588
1.1467073 -0.32631776 1.641 -0.29994524 0.31695014 0.27200761 0.51421076
0.80975443 -0.31446734 1.5990001 -0.57574069 -0.022424579 0.19161278 0.60720319
0.96577191 -0.33079052 1.682 -0.61052948 0.09834066 0.30146301 0.68796593
0.96887249 -0.33059382 1.6810001 -0.60940546 0.10876629 0.32073224 0.69719028
0.97254723 -0.33059382 1.6810001 -0.60904771 0.11227855 0.32551652 0.69964749
0.97622198 -0.33059382 1.6810001 -0.6089772 0.11256921 0.32570747 0.69972163
0.98047966 -0.33079052 1.682 -0.60877824 0.11266857 0.32564449 0.69953519
0.98415661 -0.33079052 1.682 -0.60834008 0.11278567 0.32625103 0.6994555
0.98783356 -0.33079052 1.682 -0.60834593 0.11256039 0.32554567 0.69909555
0.9838472 -0.32823384 1.669 -0.60603857 0.12041253 0.35121399 0.71072721
0.98512906 -0.32744718 1.6650001 -0.60429037 0.12368023 0.36104488 0.71471465
0.98045486 -0.32469392 1.651 -0.59810162 0.13210398 0.37939006 0.72049552
0.97154719 -0.32056394 1.6300001 -0.58005476 0.16003904 0.41494846 0.73092973
0.97511047 -0.32056394 1.6300001 -0.5799191 0.16009557 0.41502464 0.7308777
0.9726696 -0.31859729 1.6200001 -0.57499421 0.17389011 0.43273547 0.74034864
0.97560841 -0.31840062 1.6190001 -0.57270789 0.17998889 0.44001776 0.7443158
0.9785428 -0.31820396 1.618 -0.57155585 0.18364049 0.44384533 0.74659133
0.9808659 -0.31781062 1.6160001 -0.56908572 0.18915957 0.44996238 0.74973732
0.98257113 -0.3172206 1.613 -0.56541938 0.19756874 0.45943648 0.75486046
0.98487455 -0.31682733 1.6110001 -0.56503886 0.20137388 0.4632917 0.75793111
0.98839623 -0.31682733 1.6110001 -0.56532872 0.20346488 0.46512884 0.75982851
0.99130225 -0.31663063 1.6100001 -0.56676853 0.20301454 0.46381271 0.75997615
0.99482185 -0.31663063 1.6100001 -0.56767964 0.202729 0.46296597 0.76006359
0.99772125 -0.31643394 1.6090001 -0.56731975 0.2034079 0.46155781 0.75911933
1.0006163 -0.3162373 1.608 -0.56537831 0.20505448 0.46013206 0.75724596
1.0041316 -0.3162373 1.608 -0.56199682 0.20927994 0.46075523 0.75626308
1.0063934 -0.31584397 1.6060001 -0.55928069 0.21307273 0.46180767 0.75595051
1.0080178 -0.315254 1.603 -0.55501783 0.21689865 0.45805436 0.75160068
1.01026 -0.31486064 1.6010001 -0.55473071 0.21803142 0.45877981 0.75215876
1.0131266 -0.31466398 1.6 -0.55074686 0.22097035 0.4558301 0.74828541
1.0153536 -0.31427065 1.598 -0.54737008 0.22373487 0.45272598 0.74473625
1.0175717 -0.31387731 1.5960001 -0.54196459 0.22829054 0.45063311 0.74088621
1.0204209 -0.31368068 1.595 -0.53582227 0.23387383 0.44919255 0.73727638
1.0239077 -0.31368068 1.595 -0.52892548 0.23977034 0.44650495 0.73254257
1.0299709 -0.31446734 1.5990001 -0.52308846 0.24315277 0.44228727 0.72688568
1.0483317 -0.31899062 1.6220001 -0.50511545 0.2504209 0.41414148 0.69954658
1.0661447 -0.32331723 1.6440001 -0.52036828 0.24798664 0.34166726 0.67008734
1.0703893 -0.3235139 1.6450001 -0.51368183 0.25194642 0.33022696 0.66060263
1.0746382 -0.32371056 1.646 -0.50148082 0.2584044 0.31986865 0.64851511
1.0880624 -0.32666051 1.6610001 -0.45012355 0.28064504 0.30063534 0.60971671
1.1081247 -0.33157718 1.6860001 -0.34527239 0.3174445 0.2759974 0.54420453
1.1074463 -0.32489055 1.6520001 -0.3652707 0.29660362 0.27846447 0.54675305
1.1103852 -0.32469392 1.651 -0.3576667 0.29734284 0.27775794 0.54174507
1.1139944 -0.32469392 1.651 -0.34992766 0.29848346 0.27717081 0.53699666
1.1121881 -0.32312059 1.6430001 -0.35935298 0.29359984 0.27714938 0.54050642
