# .PCD v0.7 - Point Cloud Data file format
VERSION 0.7
FIELDS x y z normal_x normal_y normal_z curvature
SIZE 4 4 4 4 4 4 4
TYPE F F F F F F F
COUNT 1 1 1 1 1 1 1
WIDTH 93
HEIGHT 1
VIEWPOINT 0 0 0 1 0 0 0
POINTS 93
DATA ascii
-3.1884899 -0.56530797 8.3660002 -0.39446762 -0.21332484 0.75180054 0.87539488
-3.1702015 -0.56530797 8.3660002 -0.40629691 -0.20077208 0.73598343 0.86432534
-3.1949692 -0.5481146 8.3830004 -0.32213619 -0.18629833 0.83960128 0.91837311
-3.1846013 -0.54948759 8.4040003 -0.39078733 -0.22396937 0.74826545 0.87337172
-3.1846013 -0.53109956 8.4040003 -0.36342442 -0.18694019 0.82956672 0.92477286
-3.2213445 -0.49432337 8.4040003 0.73870486 -9.3526207e-05 -0.41983229 0.84967291
-3.2029729 -0.49432337 8.4040003 0.74385262 -0.0021897727 -0.41701123 0.85277188
-3.1846013 -0.49432337 8.4040003 0.78526378 0.021380948 -0.39021572 0.87713432
-3.2213445 -0.47593528 8.4040003 0.72612721 -0.020008853 -0.34968755 0.80619007
-3.2029729 -0.47593528 8.4040003 0.7547704 -0.0081038959 -0.33305258 0.82502609
-3.1849804 -0.4759919 8.4050007 0.76346552 -0.0063594338 -0.3274802 0.83076066
-3.2033541 -0.45760164 8.4050007 0.76193291 0.0079290643 -0.32778788 0.8294875
-3.1666064 -0.45760164 8.4050007 0.15816322 -0.076814696 0.4601869 0.49263382
-3.2056406 -0.43952492 8.4110003 0.17431411 -0.099718727 0.47000977 0.5111149
-3.1940749 -0.44046551 8.4290009 0.14703786 -0.11717118 0.44095871 0.47936812
-3.1756485 -0.44046551 8.4290009 0.13372046 -0.11980809 0.42653906 0.46278581
-3.2121198 -0.42197266 8.4280005 0.16150251 -0.12304613 0.45300576 0.49642485
-3.1936958 -0.42197266 8.4280005 0.15458363 -0.12248024 0.44673532 0.48833385
-3.1752717 -0.42197266 8.4280005 0.13762626 -0.12515154 0.42902967 0.46762201
-3.2121198 -0.40353209 8.4280005 0.16350454 -0.13538104 0.45106995 0.49852368
-3.1936958 -0.40353209 8.4280005 0.1502682 -0.13272998 0.43941733 0.48299623
-3.1752717 -0.40353209 8.4280005 0.14057305 -0.1341998 0.42914471 0.47110036
-3.2117386 -0.3850458 8.427 0.17388275 -0.13552631 0.40469435 0.46084717
-3.1933167 -0.3850458 8.427 0.16577715 -0.13274194 0.39819422 0.45128831
-3.1748948 -0.3850458 8.427 0.15532303 -0.12929299 0.38926968 0.43860322
-3.2113578 -0.36656389 8.4260006 -0.65947682 -0.14252496 0.73062813 0.99450517
-3.1933167 -0.3666074 8.427 -0.66815883 -0.1418198 0.72315395 0.99473655
-3.1748948 -0.3666074 8.427 -0.6802482 -0.1390916 0.71271622 0.99501181
-3.2060218 -0.34754923 8.4120007 -0.51573491 -0.13688844 0.82684314 0.98406833
-3.1929381 -0.34812766 8.4260006 -0.52339727 -0.13984142 0.81918436 0.98212188
-3.2022107 -0.32875237 8.4020004 -0.45356068 -0.1303837 0.85025084 0.97244209
-3.1880119 -0.32918277 8.4130001 -0.46045849 -0.13290998 0.84346366 0.97011238
-3.1999238 -0.31014702 8.3960009 -0.42975748 -0.12582321 0.85503185 0.96519554
-3.1838436 -0.31036866 8.4020004 -0.43540919 -0.12621538 0.85003203 0.96336174
-3.1808121 -0.29170695 8.3940001 -0.42375529 -0.10778207 0.8515361 0.95723522
-3.0918205 -0.093076132 8.7120008 -0.12323564 -0.42418984 0.51794487 0.68072826
-3.0727756 -0.093076132 8.7120008 -0.13644031 -0.40957958 0.50160724 0.66180152
-3.1108654 -0.074014135 8.7120008 -0.1124416 -0.43675905 0.52905881 0.69520128
-3.094996 -0.074549362 8.7750006 -0.15287894 -0.38862008 0.47807115 0.63478309
-3.2419817 -0.051583868 8.1780005 0.61112076 0.072495773 -0.71811211 0.94573212
-3.2241042 -0.051583868 8.1780005 0.61026841 0.073473349 -0.71843529 0.94550258
-3.1230509 -0.05550722 8.8000002 -0.15603918 -0.38925388 0.47069538 0.63041329
-3.1115732 -0.055645987 8.8220005 -0.19164497 -0.33951038 0.38366014 0.54698282
-3.0845764 -0.05550722 8.8000002 -0.19181299 -0.33703566 0.38384831 0.5456416
-3.268919 -0.033599645 8.1560001 0.60319364 0.074756198 -0.71648759 0.93956667
-3.2598591 -0.033690277 8.1780005 0.61219323 0.071629919 -0.71769524 0.94604325
-3.2241042 -0.033690277 8.1780005 0.61085385 0.072757535 -0.71821439 0.94565743
-3.1312134 -0.036347434 8.823 -0.19146824 -0.34161443 0.38360649 0.54819196
-3.1119258 -0.036347434 8.823 -0.19137451 -0.34310028 0.38340575 0.5489462
-3.0926383 -0.036347434 8.823 -0.19137451 -0.34310028 0.38340575 0.5489462
-3.268919 -0.015754191 8.1560001 0.60984385 0.069058746 -0.71865976 0.94506639
-3.2602575 -0.015798617 8.1790009 0.67585373 -0.034978714 -0.57671767 0.88915974
-3.2419817 -0.015796686 8.1780005 0.67554533 -0.034502085 -0.57683671 0.88898396
-3.1312134 -0.017042572 8.823 -0.19139099 -0.34290177 0.38341621 0.54883522
-3.1119258 -0.017042572 8.823 -0.19139099 -0.34290177 0.38341621 0.54883522
-3.0926383 -0.017042572 8.823 -0.19128856 -0.34462929 0.38313079 0.5496816
-3.0656877 -0.017000077 8.8010006 -0.17231432 -0.36940157 0.43838626 0.59860861
-3.0457556 -0.016996214 8.7990007 -0.096413523 -0.44119388 0.55074286 0.71222562
-3.2510896 0.0020912641 8.1560001 0.61361414 0.069942072 -0.71714175 0.94641769
-3.1122787 0.0022625448 8.8240004 -0.19128856 -0.34462929 0.38313079 0.5496816
-3.092989 0.0022625448 8.8240004 -0.1911335 -0.34626931 0.38309187 0.55063039
-3.067081 0.0022576731 8.8050003 -0.17207545 -0.37164351 0.43806016 0.59968787
-3.0457556 0.0022561345 8.7990007 -0.095648825 -0.44462591 0.55001009 0.71368903
-3.092989 0.021569593 8.8240004 -0.19055358 -0.35283789 0.38250118 0.55417722
-3.0736992 0.021569593 8.8240004 -0.17016259 -0.38429374 0.43723708 0.60647613
-3.0478327 0.02152315 8.8050003 -0.090334147 -0.4632467 0.54685748 0.72236472
-3.0674291 0.040793259 8.8060007 -0.16943455 -0.38895154 0.43674728 0.60888386
-3.2056286 0.057039462 8.3630009 0.75159729 -0.1187288 -0.4945868 0.90753025
-3.1873467 0.057039462 8.3630009 0.7565586 -0.11577015 -0.49083304 0.90923083
-3.2115657 0.07462617 8.2840004 0.75939101 -0.022144899 -0.52459073 0.92323375
-3.2181282 0.075202711 8.3480005 0.75996971 -0.086361691 -0.49030066 0.90851915
-3.2056286 0.075337835 8.3630009 0.75159383 -0.12215753 -0.49487817 0.90814102
-3.1873467 0.075337835 8.3630009 0.75712311 -0.11831479 -0.49066922 0.90993959
-3.2219088 0.092012718 8.2180004 0.68472373 -0.041266739 -0.56541073 0.8889538
-3.2115657 0.092751689 8.2840004 0.76007617 -0.023225792 -0.52420515 0.92360502
-3.2181282 0.093468264 8.3480005 0.74847078 -0.12597597 -0.49730724 0.90741003
-3.2056286 0.093636207 8.3630009 0.75215125 -0.1248127 -0.49469629 0.9088642
-3.1873467 0.093636207 8.3630009 0.75821519 -0.12006678 -0.49004379 0.91074103
-3.1934564 0.11087721 8.2840004 0.76578575 -0.016613549 -0.52013987 0.92587757
-3.1998792 0.11173382 8.3480005 0.75329995 -0.12712787 -0.49406168 0.90979081
-3.1816299 0.11173382 8.3480005 0.75996268 -0.12109832 -0.48887435 0.91170514
-3.3794763 0.2355746 8.2080002 0.50446188 -0.058588486 -0.072360367 0.51298189
-3.1713164 0.27602077 8.9360008 -0.17028281 -0.49473166 0.54621351 0.75637615
-3.1517818 0.27602077 8.9360008 -0.17028281 -0.49473166 0.54621351 0.75637615
-3.1517818 0.29557288 8.9360008 -0.17028281 -0.49473166 0.54621351 0.75637615
-3.3346283 0.28867647 8.1860008 0.53036958 0.05202952 -0.10051998 0.54231286
-3.3305545 0.30621305 8.1760006 0.39400655 -0.28164682 -0.10514262 0.49560171
-3.3126814 0.30621305 8.1760006 0.34931707 -0.36516148 -0.16571951 0.53181601
-3.3228147 0.32334912 8.1570005 0.34956041 -0.34850213 -0.14790621 0.51528871
-3.3398273 0.34111306 8.1550007 0.38466853 -0.25497046 -0.082911938 0.46888614
-3.322 0.34111306 8.1550007 0.34146297 -0.35653433 -0.15293679 0.51682043
-3.3041728 0.34111306 8.1550007 0.34225741 -0.36697313 -0.16847855 0.52933395
-3.322 0.35895631 8.1550007 0.33669031 -0.34250876 -0.13567269 0.49907884
